# .PCD v0.7 - Point Cloud Data file format
VERSION 0.7
FIELDS x y z rgb
SIZE 4 4 4 4
TYPE F F F U
COUNT 1 1 1 1
WIDTH 1104
HEIGHT 1
VIEWPOINT 0 0 0 1 0 0 0
POINTS 1104
DATA ascii
5.7119632 0.99112928 -0.89607924 4294170019
5.7052789 0.95394701 -0.89400977 4294961091
5.7051764 0.91798151 -0.8930546 4283320629
5.7009444 0.88145006 -0.89146268 4289440156
5.5949168 0.82994646 -0.8733148 4287859056
5.6360688 0.80073673 -0.87920493 4292987810
5.7103333 0.77556813 -0.89050752 4293712552
5.7032356 0.73899406 -0.88859725 4283580456
5.6959052 0.70253634 -0.88668692 4281346327
5.606956 0.65667045 -0.87156367 4281214749
5.6373734 0.62519073 -0.87586188 4294439894
5.682343 0.59490329 -0.88254791 4290886561
5.6976762 0.56118637 -0.88445824 4294637016
5.6892152 0.52512747 -0.88254791 4294106041
5.6677399 0.4880932 -0.87856811 4294436025
5.6568503 0.45220703 -0.87633944 4294765250
5.6536112 0.41705337 -0.87538427 4294701767
5.6974339 0.38514942 -0.88207036 4294964179
5.7026463 0.35036477 -0.88254791 4280817160
5.7007456 0.31514972 -0.88191116 4283843640
5.7005997 0.28006789 -0.88159281 4281476121
5.7357459 0.2465235 -0.88700533 4281542427
1.8085855 0.066884808 -0.25310275 4283318852
1.8365917 0.056632411 -0.2575601 4284043329
1.7845961 0.044081554 -0.24912296 4284569152
1.6811895 0.031229371 -0.23240779 4282924078
1.6793752 0.0208891 -0.23208942 4281609511
1.6794716 0.010584253 -0.23208942 4281346086
1.6775306 0.00027913874 -0.23177104 4282069809
1.678488 -0.010020123 -0.23193021 4282069809
1.6695102 -0.020209324 -0.23049749 4282530360
1.6693549 -0.030452868 -0.23049749 4282332981
1.679006 -0.040938191 -0.23208942 4281938739
5.6315885 -0.20740359 -0.86997175 4291676867
5.6607862 -0.24327056 -0.87490672 4294110422
5.6611586 -0.27809694 -0.87522513 4293781958
5.6534314 -0.31250057 -0.87426996 4293715672
5.6543636 -0.34736532 -0.87474751 4294834919
5.6531115 -0.38211992 -0.87490672 4294440149
5.6693673 -0.4181807 -0.87793136 4294373843
5.6627574 -0.4526445 -0.8772946 4294176464
5.6628246 -0.4876363 -0.87777215 4294571223
5.6548109 -0.52191955 -0.87697619 4294964699
5.6416769 -0.55563867 -0.87538427 4293451712
5.6322699 -0.58962774 -0.87442917 4294834905
4.7984295 -0.53206247 -0.73975271 4294637026
4.7891917 -0.56080562 -0.73879755 4280227343
4.7415681 -0.58473986 -0.7316339 4285951074
4.7143941 -0.61077642 -0.7278133 4285292879
4.6870799 -0.63650161 -0.72399271 4285554509
4.6566949 -0.66149795 -0.7196945 4285686095
4.6252055 -0.68600059 -0.71523714 4286870618
4.5887132 -0.70938724 -0.70998383 4286741345
4.5764761 -0.73627454 -0.70871025 4287530356
4.5670037 -0.7635271 -0.70791429 4284699980
4.5515327 -0.7896781 -0.70616323 4280029964
5.6552525 -1.0170497 -0.88780129 4282071332
5.6226997 -1.0468497 -0.88350308 4287335269
5.5977511 -1.0777825 -0.88047844 4294242770
5.6065254 -1.1151921 -0.88302553 4294898655
5.600544 -1.1497707 -0.88318473 4294963424
5.5798626 -1.1812499 -0.88095599 4291017646
5.1355658 -1.1201285 -0.80884206 4283519564
5.5909538 -1.2554764 -0.8852542 4294042081
5.5735264 -1.2875355 -0.88366228 4293055699
5.573205 -1.3235351 -0.8849358 4294901500
5.5275745 -1.3485783 -0.87872732 4294704632
5.5278149 -1.3846289 -0.88016003 4294703864
5.5077405 -1.4155712 -0.87824976 4294967033
5.5562286 -1.46444 -0.88780129 4294309876
4.1039548 -1.190011 -0.65028679 4294836218
4.1088796 -1.2188209 -0.65235633 4291940029
4.0349278 -1.2781417 -0.64375997 4293652716
3.6112781 1.0957106 -0.61565584 4294440951
3.6065993 1.0701647 -0.61360508 4290098864
4.1227784 1.1686448 -0.7043516 4282137911
4.1260729 1.1422732 -0.703668 4293388522
4.1349063 1.1174492 -0.70400983 4290166978
4.2264714 1.1144377 -0.71921968 4289247413
4.6310329 1.1304778 -0.78792048 4292600287
4.6369238 1.1018131 -0.78774953 4290293413
5.0304461 1.1628585 -0.85662121 4283185197
5.0432544 1.1332678 -0.85764658 4289503896
5.0587764 1.1041946 -0.85918468 4281148960
5.566658 1.1794332 -0.94805133 4286470999
5.6201143 1.1547829 -0.95625436 4291999141
5.6241951 1.119699 -0.9557417 4291998874
5.6222525 1.0834887 -0.95420361 4290814600
5.622015 1.0477058 -0.95300734 4289563252
5.6167016 1.011093 -0.95095658 4288182367
5.6227999 0.97661054 -0.95095658 4288180831
5.6170259 0.94013709 -0.94890583 4287525738
5.6110158 0.9037714 -0.94685501 4287659895
5.5999036 0.86676043 -0.94394976 4281080334
5.6051159 0.83238369 -0.94394976 4281736207
5.6091428 0.79783678 -0.94377887 4283184924
5.61198 0.76313871 -0.9434371 4284367405
5.6116714 0.72805512 -0.94258261 4283313689
5.6082106 0.69264096 -0.9412154 4283839261
5.6025691 0.65706688 -0.93950641 4281208321
5.6074748 0.62278676 -0.93967736 4284368697
5.6102109 0.5882653 -0.93950641 4283316518
5.6088119 0.55334598 -0.93865198 4283643691
5.6219125 0.51982975 -0.9403609 4284037167
5.6004558 0.48320201 -0.9360885 4284762681
5.6101899 0.44938126 -0.93728477 4283183131
5.6118593 0.41487649 -0.93711388 4286340165
5.6015196 0.3795664 -0.93489224 4284037669
5.6135774 0.34579676 -0.93660116 4283841322
5.6096911 0.31101751 -0.93557578 4283841320
5.5416241 0.27313277 -0.92344207 4283841831
1.8341106 0.078338005 -0.27950063 4282005294
1.8306181 0.06693612 -0.27881706 4281676080
1.8162223 0.055243563 -0.27625358 4281675302
1.8263768 0.044343848 -0.27796257 4281676072
1.7231774 0.03119394 -0.26001835 4280952860
1.6829427 0.020109423 -0.25301155 4280952608
1.6751523 0.0097314129 -0.25164437 4281280293
1.6722246 -0.00054840895 -0.25113168 4281806637
1.6731751 -0.010814657 -0.25130257 4282267188
1.6622399 -0.02095188 -0.2494227 4282398774
1.6601099 -0.031115256 -0.2490809 4282332981
1.6549625 -0.04118184 -0.24822643 4281807155
5.5928712 -0.20508994 -0.93181604 4288250758
5.5974135 -0.23965494 -0.93284142 4282526263
5.5987897 -0.27413943 -0.93335414 4294173929
5.5920835 -0.30821773 -0.93249965 4282136118
5.5832028 -0.34210393 -0.93130338 4285424998
5.5868974 -0.37675193 -0.93232876 4282066720
5.6031504 -0.41239563 -0.93557578 4283447088
5.6152477 -0.44794032 -0.93813926 4283248682
5.6261368 -0.48356479 -0.94053185 4283182630
5.623064 -0.51807696 -0.94053185 4283576620
5.6433129 -0.55487877 -0.94463336 4283381297
5.6447024 -0.59000623 -0.94548786 4283711802
4.8790598 -0.54042155 -0.81252968 4284041021
4.8316135 -0.56520778 -0.80483931 4283911238
4.7830696 -0.58931196 -0.796978 4283844416
4.7520032 -0.61511433 -0.79219288 4287726707
4.6446438 -0.63024318 -0.77407777 4287134818
4.632885 -0.65762454 -0.77271056 4286345817
4.6190162 -0.6845969 -0.77100158 4287266406
4.6088858 -0.71202457 -0.7699762 4288253299
4.5937285 -0.73857301 -0.76809633 4289240198
4.6134067 -0.77079892 -0.77236879 4282264867
4.6066489 -0.79875553 -0.77202702 4282659378
4.6326947 -0.83257568 -0.77749568 4284962131
5.6804867 -1.0566325 -0.96326113 4280556059
5.6574469 -1.0883065 -0.96035594 4281081888
5.669991 -1.1268369 -0.96377385 4280358420
5.619535 -1.1527056 -0.95608348 4279765765
5.6133204 -1.1873684 -0.95625436 4280553998
5.6136303 -1.2234657 -0.95762157 4281871909
5.0330067 -1.1294365 -0.85576671 4282397225
5.5665112 -1.2849547 -0.95198196 4286210145
5.5077109 -1.3070389 -0.94292438 4283511090
5.4392776 -1.3261185 -0.93215787 4292725444
5.3822894 -1.3472767 -0.92344207 4294835960
5.3996892 -1.3868891 -0.9280563 4293454559
5.3796439 -1.4169856 -0.92600554 4294704374
4.0723405 -1.0997024 -0.69273061 4285295473
4.0503211 -1.1204702 -0.68999624 4289570211
4.0319934 -1.1420822 -0.68794549 4287397238
4.0372128 -1.1703635 -0.69016713 4287067235
4.0346789 -1.1965127 -0.69102162 4282462749
4.0263181 -1.2209609 -0.69085073 4285030998
4.0309863 -1.2494317 -0.69307238 4293191136
3.5193706 1.0920404 -0.64716047 4294179321
3.8887589 1.1544976 -0.71636981 4288784545
4.1629682 1.2081329 -0.76818526 4288388759
4.1220655 1.1688926 -0.75884748 4285623911
4.127265 1.1430537 -0.75848132 4289637033
4.1607747 1.1248894 -0.76360792 4292664288
4.1561913 1.0963302 -0.76141083 4289507505
4.5059552 1.1296036 -0.82604283 4294966518
5.3274641 1.3007865 -0.98222154 4294961110
5.1947441 1.2346666 -0.95530683 4289698708
5.0709977 1.1724395 -0.93022305 4288054919
5.2008719 1.1688865 -0.953659 4290817446
5.0648332 1.1057203 -0.92637807 4291867557
5.5177779 1.1691461 -1.0113335 4282720533
5.5441074 1.1392238 -1.0149953 4281146129
5.5500293 1.1049925 -1.0148122 4281867291
5.5267787 1.0651522 -1.0091364 4282066215
5.5641379 1.0369821 -1.0149953 4281476399
5.690372 1.0244122 -1.037699 4280425514
5.7110801 0.99200004 -1.0404453 4281418322
5.7083321 0.95547873 -1.0387975 4287208361
5.6966171 0.91762215 -1.0355018 4279906116
5.6933961 0.88129818 -1.033854 4281094510
5.6986971 0.84634757 -1.033854 4280832868
5.7067027 0.81178015 -1.0344033 4280899181
5.697938 0.77489549 -1.03184 4280899951
5.704536 0.74017185 -1.0322062 4280965485
5.7040911 0.70455337 -1.0312907 4281095531
5.7073302 0.66942602 -1.0311077 4280963163
5.7054687 0.63374305 -1.030009 4283855238
5.7063155 0.59841567 -1.0294597 4281554540
5.70401 0.56281227 -1.0283612 4281029997
5.6936512 0.52653611 -1.0257978 4281356131
5.6987338 0.49175948 -1.0261641 4286812564
5.6987042 0.45654812 -1.0256149 4283186737
5.6955156 0.42113838 -1.0245162 4283514416
5.6950498 0.38598418 -1.0239669 4285226330
5.6541371 0.3483755 -1.0159109 4286148453
1.8633003 0.10359298 -0.3084375 4282266667
1.8688104 0.092399754 -0.30935296 4282001185
1.8438053 0.079830907 -0.30459255 4282923314
1.8314891 0.06804423 -0.30221233 4284109383
1.81615 0.056320924 -0.29928282 4287006318
1.7928742 0.044594571 -0.29488859 4289834906
1.7410188 0.032628119 -0.28518462 4285492317
1.7254581 0.02175007 -0.28225514 4281084196
1.7088467 0.011058079 -0.27914253 4281346086
1.6961021 0.00057119108 -0.27676234 4281740844
1.6813276 -0.0097470339 -0.27401593 4282135602
1.6733718 -0.019967627 -0.27255118 4282332981
1.6643715 -0.030072972 -0.27090332 4282201395
1.667104 -0.040356852 -0.27145261 4281873200
5.7219682 -0.20974112 -1.0272627 4281417546
5.6822677 -0.24320439 -1.0201221 4283257448
5.6502285 -0.27657348 -1.0144461 4286416515
5.6680579 -0.31232053 -1.018108 4286547079
5.6660342 -0.34709322 -1.018108 4282533449
5.6490855 -0.38085985 -1.0153615 4287072387
5.6799765 -0.41797009 -1.0215868 4287467145
5.6694655 -0.4521881 -1.0201221 4287072644
5.672461 -0.48747218 -1.0212206 4287335816
5.6713214 -0.52244914 -1.0215868 4287468172
5.6777925 -0.5582003 -1.0234177 4288126614
5.6625276 -0.59180105 -1.0212206 4287665301
5.6675839 -0.62750876 -1.0228684 4278851619
5.6812024 -0.66432911 -1.0261641 4281749347
5.6897035 -0.70073879 -1.0285443 4285628541
4.7483611 -0.61433995 -0.8525914 4282662967
4.7026129 -0.63777924 -0.84471834 4282659879
4.6937447 -0.66593105 -0.84380287 4281871141
4.6885977 -0.69457471 -0.84361982 4282265899
4.6619015 -0.71987778 -0.83940864 4282003241
4.6496315 -0.74722058 -0.83794391 4283253569
4.6294446 -0.77314377 -0.8350144 4285228389
4.5790877 -0.79364061 -0.82640898 4289570731
4.563488 -0.81980944 -0.824395 4286082158
4.5197115 -0.84060144 -0.81707126 4291937467
4.4855075 -0.86274499 -0.81157845 4286739821
4.4753079 -0.8892929 -0.81066298 4292396740
4.4601369 -0.91476005 -0.80883205 4293582558
4.4525166 -0.94170278 -0.80846584 4294964724
5.4773083 -1.1936946 -1.0049253 4294372329
5.4382257 -1.2201755 -0.99888307 4294768374
5.4296794 -1.2532998 -0.99869996 4293977831
4.9828453 -1.1823771 -0.9146601 4282465336
4.9860024 -1.2154911 -0.91667408 4279637000
5.0013385 -1.2517922 -0.92106837 4280424209
5.2211337 -1.3409194 -0.96482772 4282789418
5.2375245 -1.3794422 -0.9695881 4284631364
5.2688246 -1.4223169 -0.97727805 4285357657
4.0443392 -1.1183438 -0.74236906 4285029719
4.0137539 -1.1364405 -0.73779172 4284174147
4.0199242 -1.1648791 -0.74035507 4282135853
4.0494599 -1.2004232 -0.74749571 4294441464
3.3501961 1.0854319 -0.65927505 4293785592
3.3670766 1.0681211 -0.6614154 4294508031
3.3763773 1.0483145 -0.66199917 4287007884
4.1025829 1.2190555 -0.80968291 4287206801
4.0817299 1.1856434 -0.80384558 4290099640
4.1304436 1.172372 -0.81240696 4283651158
4.1403952 1.1477928 -0.81299073 4289901495
4.110436 1.1123631 -0.80540222 4287927705
4.1579614 1.0979002 -0.81376898 4288321691
4.1731682 1.0745704 -0.81552023 4294768627
5.274652 1.3240575 -1.0394781 4285029195
5.1407146 1.2569242 -1.0104861 4284106553
5.2933655 1.2599115 -1.0400618 4282131228
5.066885 1.1731484 -0.99239051 4291079589
5.1763759 1.1651058 -1.0132102 4288316774
5.1949263 1.135839 -1.0155451 4294894787
5.4128814 1.1487877 -1.058352 4294497969
5.3564219 1.1024884 -1.0455099 4294433482
5.3611622 1.0692172 -1.0451207 4292068024
5.5014873 1.0621762 -1.0721669 4293650671
5.6236033 1.0500281 -1.0955162 4280035394
5.6434546 1.0179429 -1.0982403 4280038739
5.6669884 0.98632717 -1.1017426 4280103495
5.6855087 0.95364863 -1.1042721 4284906883
5.6980314 0.91984069 -1.1056341 4281093207
5.7142305 0.88651723 -1.1077745 4280703089
5.7127709 0.8504262 -1.1064124 4281031537
5.7159395 0.81507999 -1.1060233 4280834158
5.7169456 0.7794615 -1.105245 4280637298
5.7167573 0.7437346 -1.1042721 4280833907
5.7163463 0.70803934 -1.1032993 4280900468
5.7166862 0.67249197 -1.1025209 4282280314
5.7177806 0.63707596 -1.1019372 4281161324
5.7186556 0.60167187 -1.1013534 4280834423
5.7144303 0.56579673 -1.0997969 4281031034
5.7217016 0.53108639 -1.1005751 4279843922
5.7199664 0.4955444 -1.0996022 4287601050
5.7033453 0.45886075 -1.0957108 4289570200
5.7021403 0.42356557 -1.0949324 4280425235
5.7046328 0.38856992 -1.0949324 4283384126
5.6902661 0.35252514 -1.0916246 4282924858
1.8033121 0.099812582 -0.31896034 4284367412
1.8166264 0.089380644 -0.32148984 4284499509
1.7985215 0.077418715 -0.31779289 4283185961
1.7852399 0.065866396 -0.31506881 4284172856
1.7856103 0.054911137 -0.31506881 4286538835
1.7829721 0.043879464 -0.31448507 4286276174
1.721423 0.031756587 -0.30222675 4284435777
1.6941231 0.020836728 -0.29677859 4281017121
1.6981425 0.010468292 -0.29755691 4281149734
1.6873851 4.0719984e-05 -0.29541656 4281413159
1.6804873 -0.010275693 -0.29405451 4281742124
1.6745079 -0.020518791 -0.29288706 4281807917
1.664543 -0.030619504 -0.2909413 4281610538
1.679033 -0.041182864 -0.29385993 4281414188
5.7160439 -0.20758852 -1.0953215 4281677887
5.6921225 -0.24170512 -1.0908463 4284246643
5.6484032 -0.27458754 -1.0824795 4286745229
5.6329002 -0.30849221 -1.0797554 4287466632
5.6720228 -0.34554589 -1.0879277 4285361769
5.5934572 -0.37523711 -1.0727507 4287796885
5.6820297 -0.41619614 -1.0908463 4287599506
5.682303 -0.45128492 -1.0914301 4287665299
5.6784492 -0.48605895 -1.0912355 4287665299
5.6724291 -0.52062374 -1.0906518 4287665299
5.6730332 -0.55580109 -1.0914301 4287402127
5.6724424 -0.590904 -1.0920137 4287532686
5.6784601 -0.62677246 -1.0939596 4279245090
5.7027626 -0.66489142 -1.0996022 4280432460
5.6859188 -0.69831866 -1.0970727 4279309347
4.7252192 -0.60998267 -0.9058038 4284242272
4.7145829 -0.63804537 -0.90444177 4281019959
5.7138648 -0.80876207 -1.1054395 4281156440
5.7000613 -0.84251744 -1.1036884 4281023827
5.706418 -0.87926668 -1.1060233 4283389536
4.7333407 -0.75929445 -0.91164112 4282005815
4.6995654 -0.78349149 -0.9058038 4285427813
4.4945903 -0.77774405 -0.86552644 4284309338
4.4675264 -0.80133039 -0.86105114 4285557608
4.4731345 -0.83069485 -0.86319149 4282134313
4.5247893 -0.86902672 -0.87467152 4280226314
4.4847341 -0.88990986 -0.86766678 4284832851
4.4426718 -0.90994132 -0.86027282 4284899151
4.4254875 -0.93475437 -0.85793793 4284899408
4.4100838 -0.95980763 -0.85599214 4284899926
4.3878384 -0.98320752 -0.85268438 4284701778
4.3702531 -1.0074711 -0.85034943 4283649341
4.3200812 -1.0238736 -0.84139889 4281738523
4.2889371 -1.0443348 -0.83633989 4282133283
4.2681732 -1.0670669 -0.83342129 4288714127
4.2415919 -1.0881226 -0.82933515 4294767344
4.2196565 -1.1101391 -0.82622194 4291344050
4.1824574 -1.1278454 -0.81999546 4283384120
4.1546559 -1.1477466 -0.81571478 4283187250
4.1399841 -1.1710837 -0.81415814 4282463529
4.128952 -1.1953741 -0.81337988 4284771172
3.236093 1.069859 -0.67936206 4293980662
3.2519059 1.0529958 -0.68142581 4291282885
4.0600276 1.2053264 -0.85374892 4286614407
4.1039963 1.1910242 -0.86179757 4285692794
4.111227 1.1658202 -0.86179757 4286612364
4.1418781 1.1470991 -0.86695695 4287598741
4.1667857 1.1265138 -0.87087804 4290229686
4.2852631 1.1303647 -0.89523029 4288454039
5.1990151 1.3372438 -1.0927311 4284502348
5.1748524 1.2972312 -1.0857143 4284764229
5.2378478 1.2789119 -1.0976841 4285487689
5.2294126 1.2429037 -1.0941758 4282985248
5.070106 1.1722333 -1.0580602 4289565309
5.2261324 1.174562 -1.0902547 4294104751
5.2341971 1.1426815 -1.090461 4294299311
5.2468534 1.11176 -1.0916992 4294106568
5.2564516 1.0801358 -1.0923184 4294506736
5.4856191 1.0921735 -1.1401974 4285821308
5.5421796 1.0681189 -1.1509289 4280561988
5.5649815 1.0371392 -1.1544373 4281749611
5.5876112 1.0059197 -1.1579456 4279447103
5.6042833 0.97345704 -1.1602157 4283326323
3.3519144 0.56121564 -0.67729831 4282998118
5.647686 0.90974349 -1.1670262 4280503400
5.6783032 0.87896281 -1.1723919 4280439149
5.7029462 0.84697843 -1.1765194 4280505710
5.7215986 0.81389815 -1.1794087 4280637044
5.7323017 0.77956647 -1.1806469 4280572280
5.7369776 0.74437904 -1.1806469 4279848807
5.741437 0.70916367 -1.1806469 4281360494
5.7398496 0.67323798 -1.1794087 4281030249
5.7467895 0.6383301 -1.1800277 4280899439
5.750598 0.60305643 -1.1800277 4280310900
5.7425051 0.56660789 -1.1775513 4280572530
5.7390532 0.53073162 -1.1761067 4279249985
5.7305031 0.49449882 -1.1736301 4280755746
5.7197752 0.45823476 -1.1707408 4283317557
1.8426428 0.13651082 -0.35019398 4286734931
1.8356358 0.12467322 -0.34854296 4284697912
1.8422259 0.11376826 -0.34978122 4283910197
1.8575439 0.10327415 -0.35287684 4282792490
1.8503245 0.091489576 -0.35122585 4283383081
1.8449857 0.079881757 -0.3499876 4284434738
1.8112178 0.067295387 -0.34276447 4284368430
1.8213767 0.056481905 -0.34482822 4284171566
1.8246236 0.045377444 -0.34544736 4285093178
1.7250805 0.032332953 -0.32439709 4284831299
1.7135056 0.021602079 -0.3219206 4281346853
1.7116489 0.01107558 -0.32150784 4281018920
1.7048354 0.0005721437 -0.32006323 4281477418
1.6999145 -0.0098590553 -0.31903136 4282069809
1.6988436 -0.020277448 -0.31882498 4281938222
1.6937957 -0.030611457 -0.3177931 4281807406
1.693576 -0.041003816 -0.3177931 4281347883
5.7547841 -0.21094622 -1.1750748 4281479981
5.7289424 -0.24520525 -1.1699154 4285297003
5.6647825 -0.27728689 -1.1567074 4286547329
5.6971693 -0.31392661 -1.1639305 4287205261
5.6150513 -0.34396654 -1.1470078 4287402640
5.6362653 -0.37999466 -1.1519607 4286020474
5.6601744 -0.41651157 -1.1575329 4287138955
5.6877489 -0.45364755 -1.1639305 4287138955
5.6838832 -0.48845458 -1.1637242 4287402127
5.6866255 -0.52385998 -1.1649624 4287533713
5.684278 -0.55883837 -1.1651688 4287401102
5.6749029 -0.5930953 -1.1639305 4287138180
5.7178383 -0.63307637 -1.1738365 4279837485
5.7109303 -0.66780734 -1.1732174 4280564570
5.7067251 -0.70283633 -1.1732174 4280368218
5.7168612 -0.73972327 -1.176313 4281159790
5.7160926 -0.77531374 -1.1771386 4285891719
4.7250304 -0.67037237 -0.96704876 4284444014
5.7284098 -0.84870028 -1.1818851 4279841855
5.7056885 -0.88114399 -1.1781704 4281285952
5.7001743 -0.9161368 -1.1781704 4283452481
4.7785726 -0.79806155 -0.98232055 4284240708
4.7697291 -0.82669854 -0.98149502 4283976766
4.7636037 -0.85577649 -0.98128867 4281741873
5.6298003 -1.0471585 -1.1682644 4281287248
5.6088562 -1.0789092 -1.1651688 4281286727
4.7748756 -0.94884664 -0.98727357 4284767060
4.7833409 -0.98107696 -0.9903692 4289634200
4.8672156 -1.0294479 -1.0097684 4288381566
4.9831781 -1.0859709 -1.0361844 4280617992
5.0146093 -1.1250979 -1.0444394 4282659374
5.0180993 -1.1582673 -1.0467095 4286082407
4.9928093 -1.1847423 -1.0427884 4292070081
4.2857928 -1.0447376 -0.89089644 4282791214
4.2669621 -1.0679257 -0.88821357 4284238660
4.2442183 -1.0899483 -0.88470519 4283383097
4.2166348 -1.1104856 -0.88016492 4283383348
4.2069073 -1.1355722 -0.87954581 4283649084
4.1706257 -1.153277 -0.8731482 4284570447
4.1634707 -1.1788459 -0.8731482 4281213208
4.8290453 -1.3994241 -1.0209126 4294177520
5.0595822 -1.4999647 -1.0735383 4291348678
3.1806848 1.0725274 -0.70998353 4294835711
3.1946182 1.0554428 -0.71172732 4288849059
4.1001191 1.1894444 -0.9137882 4285361519
4.1176682 1.1671947 -0.91618592 4286808454
4.1031208 1.1359123 -0.91117251 4285425518
4.1627703 1.1249875 -0.923379 4290161326
4.2035651 1.1083913 -0.93122602 4286672239
5.0571361 1.300568 -1.1265298 4290093724
5.0801668 1.2733133 -1.1300173 4291148973
5.0831437 1.2409596 -1.1289275 4294636513
5.0678749 1.2043262 -1.1236961 4281080845
5.0799241 1.1743077 -1.124786 4294565569
5.0965552 1.1452576 -1.1269658 4293837228
5.1073003 1.1147976 -1.1278375 4294830307
5.1665535 1.0945754 -1.1398261 4293783280
5.3787007 1.1051275 -1.1866903 4283716191
5.4140944 1.0778263 -1.1932294 4282077031
5.4474378 1.0497624 -1.1993327 4281160292
5.4835176 1.0218664 -1.2060899 4279713611
5.4973683 0.98958588 -1.2078336 4286618283
3.3168302 0.57560575 -0.71216327 4285300622
5.5649252 0.9314059 -1.220476 4280899438
5.6013675 0.9022153 -1.2274512 4280307050
5.6251221 0.87066913 -1.2315927 4280241770
5.6400123 0.83757317 -1.2337724 4280372592
5.67693 0.80749291 -1.2409655 4280373358
5.6972504 0.77475202 -1.2444531 4280111463
5.718349 0.74191779 -1.2481587 4280963943
5.7373228 0.70861405 -1.2514282 4280633948
5.7648253 0.67613035 -1.2566596 4280703342
5.7601361 0.63977391 -1.2546978 4280308842
5.7571592 0.60370451 -1.253172 4280439917
5.7558985 0.56788778 -1.2520821 4280373097
5.7505283 0.53174901 -1.2501204 4279907915
5.7488217 0.49603394 -1.2490305 4282402637
5.7031155 0.45684415 -1.2381319 4291872442
1.8321422 0.13465835 -0.37059972 4283250725
5.7209506 0.38768414 -1.2409655 4282860094
5.7095842 0.35173085 -1.237914 4288518552
1.8567228 0.10215905 -0.37561309 4282726186
1.8534156 0.090571508 -0.3747412 4283579438
1.8510113 0.07907065 -0.37408727 4283183138
1.8417089 0.067348726 -0.37190756 4283907123
1.833308 0.055774257 -0.36994579 4286145368
1.8053219 0.043819167 -0.3636246 4286344027
1.7450583 0.031604879 -0.35011026 4285293396
1.7305812 0.020711733 -0.34684068 4281017120
1.7004217 0.0098958379 -0.34008351 4281477671
1.7053303 -0.00053613068 -0.34117338 4281740843
1.7111505 -0.011033588 -0.34248123 4282004015
1.706171 -0.02147473 -0.34139135 4281872429
1.7050314 -0.031925593 -0.34117338 4281872429
1.7018765 -0.042316098 -0.34051946 4281543981
1.7152419 -0.053171873 -0.34357107 4281740594
5.8218999 -0.21344051 -1.2614549 4281543981
5.7034721 -0.24417371 -1.2352983 4281608744
5.7086902 -0.27949765 -1.236824 4291019454
5.70297 -0.31430626 -1.2359521 4286876294
5.6648908 -0.34709212 -1.2278872 4286678404
5.665576 -0.3820411 -1.2285411 4285165167
5.6650715 -0.41694009 -1.228977 4287205259
5.6974306 -0.45447907 -1.236824 4286876296
5.6906447 -0.48909578 -1.2359521 4286942089
5.6923962 -0.52445042 -1.2370421 4287139209
5.6910138 -0.55955905 -1.237478 4286941830
5.6884437 -0.59456915 -1.2376959 4287402381
5.6992393 -0.63106978 -1.2409655 4278192915
5.7388816 -0.67112011 -1.2507743 4280762704
5.741436 -0.70715433 -1.2523001 4280433236
5.7408605 -0.74286997 -1.253172 4286946721
4.7371545 -0.64277273 -1.028006 4286943362
5.7380767 -0.81422162 -1.2546978 4280166188
5.7310414 -0.84912884 -1.2542619 4280631387
5.6929283 -0.87921983 -1.2468508 4281221194
5.659482 -0.90964872 -1.2405295 4282795064
4.7951078 -0.80111057 -1.0460978 4283582776
4.7843328 -0.82951874 -1.0447899 4283055664
4.7868376 -0.86023837 -1.0465337 4281808705
5.5769219 -1.0373901 -1.2272333 4281025124
5.5407405 -1.0658808 -1.220476 4281091938
5.5120788 -1.0954869 -1.2154627 4282011742
5.4564924 -1.1192963 -1.2043461 4278522145
5.4351988 -1.1497289 -1.2010765 4279571743
4.7357197 -1.032316 -1.0428282 4281937450
4.752152 -1.0664779 -1.0480595 4285489756
4.7379112 -1.0938618 -1.0463157 4284373846
5.3037362 -1.258678 -1.1777534 4281806377
5.1479893 -1.2551657 -1.1437496 4280752923
4.9773426 -1.2460023 -1.1062583 4294965242
4.9270635 -1.2656027 -1.0964495 4293254365
4.8201041 -1.26973 -1.0735624 4280685073
4.7867813 -1.2924191 -1.067677 4282198053
4.8163891 -1.3321638 -1.076396 4283713608
4.9029717 -1.3885291 -1.0984112 4294242284
4.9243579 -1.4272742 -1.1053864 4294638582
4.9417086 -1.4652249 -1.1114897 4294376700
4.9335589 -1.4958019 -1.1117076 4293785592
4.6701655 -1.7026894 -1.0705107 4294636512
4.5159864 -1.6779798 -1.036289 4294835183
3.1034164 1.0897762 -0.73580807 4291088592
3.1137261 1.0719804 -0.73672622 4294310905
3.123934 1.054099 -0.73764437 4284245344
4.0918245 1.214763 -0.96672541 4285561976
4.0431156 1.1733621 -0.95295304 4280361249
4.0493031 1.1482663 -0.9527235 4283649359
4.1106768 1.138461 -0.96603686 4285162598
4.1880546 1.132262 -0.98325235 4286279018
4.1779828 1.1020763 -0.97912067 4291999664
4.9623404 1.2763865 -1.1684912 4283772203
4.9766874 1.2475704 -1.1700979 4280814852
4.96912 1.2133178 -1.1664253 4279895808
4.9793119 1.1834799 -1.1671139 4280486405
4.9713073 1.1493984 -1.1634413 4285419851
5.0077047 1.1254873 -1.170557 4290944933
5.2180128 1.1391494 -1.2196786 4283910997
5.2906041 1.1210274 -1.2355169 4282405468
5.3116841 1.0914812 -1.23896 4283923086
5.3402367 1.0632384 -1.2442394 4282082424
5.3724647 1.0354227 -1.250437 4285367194
5.3997669 1.0063601 -1.255487 4284052102
3.2917283 0.59276044 -0.74889189 4282408301
5.4874673 0.95317447 -1.2736206 4281294199
5.5220113 0.92430443 -1.2805067 4281097077
5.5487189 0.89380854 -1.2855567 4280899700
5.5694885 0.86212659 -1.2892293 4280505458
5.5920033 0.83050913 -1.2933611 4280635764
5.6133747 0.79851073 -1.2972633 4280242799
5.6364932 0.76654345 -1.3016245 4280177507
5.6584644 0.73419726 -1.3057562 4283000956
5.6763864 0.70113319 -1.3089697 4281094250
5.7095819 0.66968989 -1.315856 4280371303
5.7406693 0.63765073 -1.3222831 4280503400
5.763834 0.60444355 -1.3268739 4280437607
5.7684026 0.56916147 -1.3271035 4280764256
5.7766323 0.53420436 -1.3282511 4281287251
5.7865891 0.49933481 -1.3298579 4286940290
5.7846932 0.46343124 -1.3287102 4282531642
1.852396 0.13723134 -0.39815447 4279438088
1.8473767 0.12546815 -0.39677724 4282728518
1.8607408 0.11490776 -0.39976126 4292202449
1.8623825 0.10354214 -0.3999908 4288848548
1.8668712 0.092304282 -0.40090898 4288915618
1.8567061 0.080386765 -0.39838403 4289836205
1.8600824 0.069100507 -0.39907265 4281083935
1.8371232 0.056966871 -0.39356369 4284567874
1.8267351 0.045429509 -0.39103875 4285158724
1.7452363 0.03270622 -0.37175736 4286279008
1.7191271 0.021671684 -0.36555979 4280491544
1.7124147 0.011080362 -0.36395299 4280887845
1.7017442 0.00057180651 -0.36142805 4281216550
1.7085286 -0.0099109719 -0.36303484 4281741613
1.6996768 -0.020287581 -0.36096898 4282135601
1.7014664 -0.030751837 -0.36142805 4282003502
1.6983267 -0.041119922 -0.36073944 4281806637
1.6960968 -0.051480383 -0.36028036 4282069295
5.7804155 -0.24741183 -1.3245785 4280230954
5.7418475 -0.28106436 -1.315856 4285161816
5.7176623 -0.31505725 -1.3105766 4287334529
5.7175651 -0.3502534 -1.3110356 4287138439
5.6463609 -0.38067597 -1.2947383 4287530364
5.6478014 -0.41560021 -1.2956564 4286477680
5.7052984 -0.45504847 -1.3098879 4287993237
5.7479753 -0.49396685 -1.3206763 4287203723
5.7448368 -0.52922642 -1.3206763 4287071876
5.7521358 -0.56551439 -1.3232013 4288650654
5.751462 -0.60110182 -1.3238899 4287138957
5.7621756 -0.63798845 -1.327333 4279509287
5.7552524 -0.67299318 -1.3266443 4281090386
5.7461848 -0.70769888 -1.3254967 4280367948
5.7378736 -0.74244368 -1.3245785 4280697431
4.7475328 -0.64387506 -1.0899885 4285693315
4.7155471 -0.66902614 -1.0833318 4283062369
5.6779842 -0.84122616 -1.3137901 4280436570
5.640974 -0.87114549 -1.3062153 4280960332
5.5855532 -0.89770687 -1.2942792 4282206274
4.8234673 -0.80556309 -1.1134015 4283516985
4.8126798 -0.83414638 -1.1120243 4283580721
4.8045969 -0.86314422 -1.1113358 4282531127
5.5254788 -1.027747 -1.2855567 4281419101
5.4731913 -1.0528033 -1.2745388 4282732392
5.3950319 -1.0721331 -1.2573233 4280101175
5.3940725 -1.10639 -1.2587005 4278588966
5.3300495 -1.1273779 -1.2449281 4282209382
5.337296 -1.1631711 -1.2483711 4281095782
5.3063169 -1.1905695 -1.2426326 4281554791
5.278048 -1.2182887 -1.2375828 4281750109
5.236382 -1.242559 -1.2293193 4281943365
4.7653203 -1.1616755 -1.1168447 4284043335
4.7666006 -1.1930206 -1.1189106 4289766552
4.8053818 -1.2341121 -1.1301579 4289701275
4.8306608 -1.2722527 -1.1381919 4281475354
4.8199444 -1.301108 -1.1375033 4281870887
4.8231268 -1.3337719 -1.1402577 4289834412
4.8232808 -1.3657281 -1.1423236 4294505717
4.8288317 -1.3993622 -1.1457667 4294638330
4.8322854 -1.4325622 -1.1487508 4294901759
4.8196793 -1.461056 -1.1478326 4294967033
4.8199201 -1.4934828 -1.150128 4293386707
4.6158099 -1.4613228 -1.1019245 4288778364
4.5752702 -1.4794332 -1.0941201 4289370477
4.5735002 -1.5099205 -1.0959566 4289373045
4.5447807 -1.5314261 -1.0911362 4294966755
4.5288558 -1.5570679 -1.0895294 4294967023
4.5623827 -1.5999689 -1.1003177 4294898905
4.5039086 -1.6105599 -1.0881522 4290682980
4.4884548 -1.6361645 -1.0867749 4289958995
4.4847174 -1.6660476 -1.0883816 4289238105
4.4862437 -1.6980138 -1.0913657 4288119632
4.5147896 -1.7405668 -1.101236 4294569680
3.0581398 1.0942582 -0.76551855 4292140768
3.0556393 1.0722561 -0.76311117 4294966266
3.085103 1.0613889 -0.76912957 4279307530
3.1025927 1.0461645 -0.77201837 4287601048
4.0793042 1.2652632 -1.0192546 4286812815
4.0730605 1.2359779 -1.0156435 4285757817
3.9205379 1.163424 -0.97423685 4294573566
4.085125 1.1850901 -1.0149213 4283980626
4.8066216 1.3626888 -1.1990845 4294175459
4.8373404 1.3393914 -1.2048622 4284764740
4.8192339 1.3025876 -1.1981217 4294763724
4.8186898 1.2707633 -1.195955 4288776811
4.8226366 1.2402046 -1.1949921 4290223484
4.8489842 1.2153138 -1.1998068 4294235307
4.84975 1.1839254 -1.1981217 4293509785
4.8550344 1.1536963 -1.1976402 4293511327
4.8733692 1.1265105 -1.200529 4291149474
5.0089717 1.125556 -1.2332691 4288721839
5.1371555 1.1213213 -1.2640834 4292278519
5.1809683 1.0976326 -1.2734721 4292080626
5.2465491 1.0779459 -1.2883977 4281947740
5.2825718 1.0516142 -1.2958605 4286947495
5.3098912 1.023226 -1.3011568 4283392625
5.3523269 0.99739039 -1.3103048 4282214523
5.3927331 0.97072786 -1.3189713 4282150019
5.4119754 0.93994844 -1.3223416 4282083202
5.4473157 0.91169649 -1.3298043 4281755007
5.4681382 0.88072777 -1.3336562 4281361017
5.4907036 0.84983522 -1.3379894 4281097331
5.5236559 0.82026935 -1.3449707 4280899698
5.5602942 0.7908783 -1.352915 4280898152
5.5852385 0.75949669 -1.3579705 4284382342
5.6090436 0.72771353 -1.3627852 4281290586
5.6230354 0.69447505 -1.3651925 4281423473
5.637794 0.66120547 -1.3678406 4281094256
5.6436749 0.62681484 -1.3683221 4281225331
5.6985741 0.59754926 -1.3810812 4281356907
5.7127581 0.56362265 -1.3837293 4280828497
5.7296395 0.52981311 -1.3870996 4286943896
5.738584 0.49514851 -1.388544 4282469204
1.8309777 0.14587323 -0.41548795 4281937963
1.8318383 0.13463579 -0.41548795 4279700999
1.8326299 0.12339333 -0.41548795 4281083691
5.8177881 0.3584187 -1.4056363 4281284673
5.8266611 0.32309225 -1.4073215 4280166452
5.8072071 0.28627875 -1.4020252 4280033575
5.7914 0.24988441 -1.397692 4282661432
1.7744477 0.064846374 -0.40032157 4283650113
1.8446609 0.056126885 -0.41765457 4285885531
1.859525 0.04516989 -0.4212656 4285883985
1.7142042 0.031025415 -0.38515517 4288187005
1.694952 0.020261258 -0.38034046 4280491544
1.6950444 0.0098608481 -0.38034046 4281018920
1.67372 -0.00054785435 -0.37504426 4281544235
1.6892143 -0.010907125 -0.37889603 4282004016
1.6939683 -0.021329498 -0.38009971 4282069296
1.7005985 -0.031845625 -0.38178486 4281937710
1.6984305 -0.042232785 -0.3813034 4281872429
1.715602 -0.053182796 -0.38563666 4281544235
1.7385221 -0.064557292 -0.39141431 4284439639
5.7100286 -0.24445304 -1.3774701 4279704105
5.7995486 -0.28392741 -1.4000994 4279635216
5.7850981 -0.31881571 -1.3969698 4283780173
5.7810955 -0.35418805 -1.3964883 4279242259
5.786561 -0.39017436 -1.3984143 4280555799
5.464622 -0.40222877 -1.3189713 4279439888
5.8219733 -0.46438813 -1.4085251 4286282878
5.8112788 -0.49943903 -1.4065993 4286480776
5.7771754 -0.53224385 -1.3988956 4284901746
5.7766995 -0.56796622 -1.3996179 4279968045
5.7509022 -0.60108459 -1.394081 4280230700
5.7374592 -0.6352939 -1.3916736 4279968045
5.7228479 -0.6692484 -1.3890254 4279115058
5.7041836 -0.70257372 -1.3854145 4280565083
5.6862898 -0.73581964 -1.3820441 4280762975
5.6662784 -0.76861197 -1.3781923 4286353836
5.6316652 -0.79914397 -1.3707296 4280105037
5.6218548 -0.8329739 -1.3695258 4280632660
5.5926566 -0.86375457 -1.3635074 4281419856
5.5479603 -0.89174712 -1.3536372 4282467904
4.8214917 -0.80551183 -1.1723628 4283385658
4.8221965 -0.83607429 -1.1738073 4283122227
4.8198419 -0.86616129 -1.1745294 4282004783
5.4347048 -1.0109658 -1.3310081 4283060567
5.3235521 -1.0241466 -1.304527 4280035891
5.3828568 -1.0698329 -1.3211379 4280431931
5.2715993 -1.0814092 -1.2946569 4280825935
5.3094969 -1.1231662 -1.3059715 4281355362
5.289228 -1.1528327 -1.3026011 4281161057
5.259325 -1.1801697 -1.2968235 4281160793
5.2169914 -1.2043478 -1.2879163 4281422423
5.1868372 -1.2309622 -1.2821386 4281159000
5.079227 -1.2384163 -1.2566205 4281225308
4.9434757 -1.2375326 -1.2238804 4280499013
4.9395499 -1.2688068 -1.2248434 4280626479
4.7702274 -1.2566037 -1.1834368 4281742389
4.7436852 -1.2807941 -1.178622 4280623390
4.7478991 -1.3132375 -1.1817515 4286150257
4.6267471 -1.3103703 -1.1526225 4288914588
4.6260781 -1.3408947 -1.1545483 4291612355
4.6968656 -1.3926888 -1.1750109 4294703347
4.7021651 -1.4257029 -1.178622 4294834680
4.68962 -1.4533796 -1.177659 4293913578
4.643599 -1.4704161 -1.1680295 4294701813
4.573534 -1.479183 -1.152141 4286738508
4.5016947 -1.4865381 -1.1357709 4288776515
4.453856 -1.5011219 -1.1256599 4290023005
4.4427257 -1.5277911 -1.1251786 4289169490
4.4396796 -1.5572697 -1.1268637 4289304156
4.458374 -1.5946076 -1.1343265 4294304689
4.4913673 -1.6375492 -1.1456411 4286934067
4.4739561 -1.6623743 -1.1437153 4287855169
4.4691186 -1.6918551 -1.1451596 4287856199
4.4722385 -1.7244799 -1.1487707 4286476876
4.4940996 -1.7646514 -1.1574372 4293454557
4.0575843 1.5083591 -1.0880948 4292664538
4.0813088 1.4887381 -1.0921307 4288780684
3.0043108 1.0751508 -0.7914626 4293387988
4.1458387 1.4548795 -1.1049948 4281479204
3.0950577 1.0649546 -0.81290287 4282270788
3.1336274 1.0567625 -0.82173121 4286484361
4.0313325 1.3318894 -1.0664023 4285694594
4.0652084 1.315468 -1.073465 4287665553
4.063056 1.2872856 -1.0706904 4285691509
3.8211145 1.1592557 -1.0005682 4293452249
3.8717585 1.1487201 -1.0124233 4282791465
4.1101532 1.1920356 -1.0752306 4290421913
4.7067308 1.3337445 -1.2348975 4293120443
4.7064323 1.3025172 -1.2326273 4285354559
4.7087302 1.2721007 -1.2311139 4294962903
4.2261271 1.1139853 -1.0989411 4289762941
4.7024307 1.2086828 -1.2253124 4294231698
4.7153907 1.1812168 -1.2268258 4294428820
4.7319503 1.1545545 -1.2293482 4294298008
4.7596588 1.1304156 -1.2348975 4293910208
4.9899602 1.152795 -1.294678 4282800471
4.9959955 1.1219435 -1.2944257 4285237901
5.0084586 1.0925045 -1.2959391 4292077541
5.0690293 1.0731726 -1.3103167 4284642170
5.1674657 1.0609199 -1.3347838 4283988360
5.1995034 1.0342883 -1.3415942 4282611335
5.2722673 1.0151678 -1.3592509 4282349446
5.29457 0.98580867 -1.363539 4282742658
5.3281384 0.95826858 -1.3708539 4282345331
5.3568006 0.92952657 -1.3769076 4282805628
5.3834004 0.90014976 -1.3824568 4282281084
5.4127069 0.87094235 -1.3887628 4281822330
5.4409008 0.84126133 -1.3948165 4282148730
5.4765906 0.81240225 -1.4028882 4283065970
5.5063815 0.7823205 -1.4094464 4284310361
5.5331316 0.75151306 -1.4152478 4294898404
5.5481954 0.7189154 -1.4180224 4286870882
5.5870762 0.68912077 -1.427103 4281607709
5.5825496 0.65381366 -1.4248328 4279830528
5.6210799 0.62338495 -1.4339135 4280424463
5.64501 0.59099746 -1.4392104 4280818704
5.6620121 0.5576762 -1.4427418 4286606687
5.6691813 0.52327973 -1.4437507 4283842098
5.6616807 0.48757184 -1.4409761 4284302649
5.6809635 0.454133 -1.4452641 4284565821
5.6875033 0.41955119 -1.4462731 4285289544
1.8628632 0.12619285 -0.44640067 4287992986
5.7434139 0.35286677 -1.4596417 4286080343
5.7106876 0.31569865 -1.4505612 4288053105
5.7144504 0.28074744 -1.4510657 4284301873
5.7112317 0.24547151 -1.4498044 4282462248
1.8078367 0.066857278 -0.4312664 4282005284
1.8140161 0.055941064 -0.43277982 4285753167
1.7785324 0.043933094 -0.42344701 4286212691
1.7400683 0.032309473 -0.41335747 4289634702
1.7247523 0.021443019 -0.40932167 4281018142
1.7132397 0.010789244 -0.40629479 4281347115
1.7103707 0.00027698933 -0.40553808 4281411625
1.7016313 -0.010163646 -0.40326795 4282069809
1.7160509 -0.02078354 -0.4070515 4282201648
1.7333061 -0.031634387 -0.4115918 4282004269
1.7417855 -0.042483456 -0.41386196 4281937709
1.7579346 -0.053675737 -0.41815001 4281675567
1.7711104 -0.064960733 -0.42168134 4280755496
1.7880803 -0.076575875 -0.42622164 4281216049
5.5617456 -0.27320653 -1.411212 4290159760
5.3725238 -0.29695368 -1.3622777 4288909952
5.3628745 -0.32943809 -1.3602599 4287462245
5.3800607 -0.36364439 -1.3653046 4290818976
5.3854485 -0.397219 -1.3673226 4291607465
5.5391726 -0.4427574 -1.4081851 4289830543
5.529603 -0.47615513 -1.4064195 4290291095
5.6585855 -0.52226824 -1.4409761 4287198824
5.6620154 -0.55764318 -1.4427418 4283251764
5.6825471 -0.59489459 -1.4490477 4279765250
5.6634016 -0.62804329 -1.4450119 4282597180
5.6479082 -0.66143006 -1.441985 4281613895
5.6485457 -0.69666505 -1.4432462 4280760394
5.6355281 -0.73019117 -1.4409761 4280695638
5.6175175 -0.7629323 -1.4374448 4281352032
4.694932 -0.66693276 -1.1958005 4282865778
5.5704021 -0.82627052 -1.4276074 4280762454
5.5221939 -0.85377789 -1.4162568 4281484881
5.4996548 -0.88487726 -1.4117165 4282730310
4.8308101 -0.80765396 -1.2364109 4283385660
4.8257637 -0.83728004 -1.2364109 4283121710
4.8376775 -0.86995876 -1.2409512 4282990647
5.3002906 -0.98680007 -1.3650523 4281216820
5.3425965 -1.0286375 -1.3779166 4281747542
5.0628552 -1.0070124 -1.305272 4280168255
5.3087177 -1.0898391 -1.3723673 4280038456
5.1040769 -1.0804927 -1.3196495 4293850873
5.1616397 -1.1258177 -1.3368018 4281679167
5.2046738 -1.1687078 -1.3501704 4281221447
5.1804342 -1.1966994 -1.34563 4280825150
5.0336571 -1.1953635 -1.3082988 4288850100
4.843853 -1.1817192 -1.2593646 4287075744
4.7905169 -1.1998943 -1.2470049 4280957765
4.9686275 -1.2769719 -1.2969481 4280300092
4.9382424 -1.3015144 -1.2908944 4281614663
4.8040519 -1.2977132 -1.2568421 4282267958
4.6383901 -1.2835387 -1.214214 4287001704
4.6369438 -1.313822 -1.2159796 4293321163
4.5981259 -1.3333533 -1.2076558 4294440666
4.5935693 -1.3626426 -1.2086647 4294506983
4.6036415 -1.3964219 -1.2137095 4294704887
4.5885167 -1.4226366 -1.2119437 4294769908
4.587081 -1.4531028 -1.2139617 4285156667
4.5826812 -1.482711 -1.2152228 4285020966
4.5293951 -1.4962292 -1.2031155 4286337596
4.4614458 -1.5042021 -1.1869721 4288248649
4.4402366 -1.5274556 -1.1836931 4288710997
4.4243898 -1.5524285 -1.1819274 4288973653
4.4202476 -1.581503 -1.1834408 4288448595
4.4259143 -1.6142334 -1.1877289 4287857757
4.4694395 -1.6612554 -1.202611 4283776792
4.5098381 -1.7078432 -1.2167363 4285552430
4.5128155 -1.7407076 -1.2205199 4289106541
4.5083551 -1.7708418 -1.2222855 4294176474
4.0162878 1.5505143 -1.1340563 4286811792
4.0194116 1.5234464 -1.132214 4287599510
4.0241632 1.4970722 -1.130898 4288517239
2.8915181 1.0551999 -0.79926658 4287924344
4.0158944 1.4381369 -1.1232651 4289568385
4.0255532 1.4137888 -1.1235284 4282002465
3.186816 1.097042 -0.87901604 4291809742
4.0599656 1.3701485 -1.1285292 4287202163
4.1314926 1.3661267 -1.14669 4285359963
4.0718856 1.318736 -1.1272132 4285161569
4.1185207 1.3059845 -1.1382675 4291018951
3.7524054 1.1644872 -1.0314085 4291743438
3.9062445 1.186049 -1.0732573 4286281063
4.4303846 1.3157185 -1.2203858 4287659385
4.0965247 1.1891729 -1.1232651 4286738532
4.60675 1.3068402 -1.2659193 4290948755
4.5756364 1.2677207 -1.2548649 4294037179
4.5535297 1.2315538 -1.2464426 4291997072
4.5805883 1.2087649 -1.2519698 4293378712
4.5981956 1.1832834 -1.2548649 4294493333
4.6259551 1.1602155 -1.2606554 4294166945
4.6601634 1.1384555 -1.2682881 4292856495
4.9035668 1.1661425 -1.3346145 4283587678
4.9219084 1.1386447 -1.3377728 4287210928
4.9871559 1.1215602 -1.3540913 4283456349
4.9864044 1.0892897 -1.3519857 4290425520
4.9958248 1.059274 -1.3527752 4294178292
3.2059269 0.65879995 -0.85243291 4284842381
4.9516816 0.98656416 -1.3369832 4294572287
5.0447879 0.97299117 -1.3611976 4281944157
5.2450738 0.97832483 -1.4151535 4283005577
5.274714 0.9504053 -1.4217335 4282479749
5.3051577 0.92232406 -1.4285767 4282475893
5.3297458 0.89294726 -1.4338408 4282543224
5.3636966 0.86484098 -1.4417367 4282542973
5.3860626 0.83457643 -1.4464743 4282215037
5.4149375 0.8050645 -1.4530543 4282212721
5.4474726 0.77577424 -1.460687 4282144616
5.469336 0.744681 -1.4654247 4280962664
5.4757156 0.71135676 -1.4659511 4280702059
5.5106149 0.68154073 -1.4743735 4281094761
5.5300231 0.64951921 -1.4785846 4281291879
5.5597925 0.61846066 -1.4856911 4281748570
5.5673203 0.58473861 -1.4867438 4283850087
5.5823236 0.55170822 -1.4899023 4279243556
5.5856037 0.51744533 -1.4899023 4281418326
1.8440772 0.15863997 -0.4644767 4282334780
1.8459775 0.14739934 -0.46473986 4283453522
1.8160603 0.13378201 -0.45631748 4290033849
5.5600448 0.37771943 -1.4799006 4280892233
5.5882559 0.34520802 -1.487007 4280694591
5.5902691 0.31091258 -1.487007 4280629059
5.5737638 0.2756961 -1.4820062 4282537058
5.358489 0.23205218 -1.4227864 4282668383
1.765766 0.064829245 -0.44157833 4282134302
1.7805947 0.054445267 -0.4455263 4285882696
1.8011483 0.044026963 -0.4510535 4287131726
1.706857 0.031182678 -0.42525995 4287856487
1.7205215 0.020882126 -0.42894474 4280621849
1.6945697 0.010150777 -0.42183834 4281149734
1.7071419 -0.00024025748 -0.42525995 4281478699
1.6916724 -0.010628785 -0.42104876 4282004016
1.6992929 -0.021098994 -0.42315435 4282398260
1.7058835 -0.031645883 -0.42499673 4282069295
1.7191597 -0.042436488 -0.42868155 4281872430
5.2799206 -0.19275951 -1.4009408 4282007614
1.7392926 -0.074973173 -0.43447194 4281744971
1.7754167 -0.087422721 -0.44447351 4280560437
5.2677717 -0.28949115 -1.3988352 4282333751
5.262044 -0.32157359 -1.3977823 4283452229
5.269598 -0.35450026 -1.4004143 4284834133
5.324091 -0.39098352 -1.4159431 4287136123
5.3610225 -0.42677444 -1.4267343 4284175434
5.3765659 -0.46122375 -1.4317352 4283585096
5.4197488 -0.498436 -1.4443687 4280559139
5.483799 -0.53826416 -1.4627926 4280954413
5.5158958 -0.57559931 -1.4725311 4280295967
5.5448637 -0.61303103 -1.4814799 4281086251
5.511292 -0.6435796 -1.4733206 4280231205
5.5350084 -0.6807937 -1.4809535 4280628020
5.5029793 -0.71116316 -1.4733206 4280628281
5.4421062 -0.73728591 -1.4577919 4281483079
4.8242259 -0.68387991 -1.2888178 4286878618
5.4087892 -0.80048746 -1.4512119 4278981401
5.3341708 -0.82293719 -1.4319984 4279113754
4.9041729 -0.7875306 -1.3146113 4282336320
4.8421512 -0.80809247 -1.2988193 4282991930
4.831398 -0.83680165 -1.2972401 4282989873
4.8527613 -0.87119764 -1.3046097 4282858804
5.3111596 -0.98705482 -1.4333143 4279504651
5.2566838 -1.0103488 -1.4198911 4286019186
5.2532244 -1.0431473 -1.4206808 4285099109
4.8648896 -0.99718744 -1.3143481 4286218104
4.7812767 -1.010677 -1.2927657 4289044118
4.7900686 -1.0432767 -1.2969769 4283122486
4.96527 -1.1133448 -1.3477744 4280163608
4.9865484 -1.1502892 -1.3556705 4281677119
4.9756413 -1.1799748 -1.3546176 4280299065
4.9767442 -1.212536 -1.3569864 4280497982
4.980442 -1.2458568 -1.3601449 4280367168
4.9362583 -1.2670467 -1.3498801 4280500042
4.8985338 -1.2894592 -1.3414576 4280895832
4.8607221 -1.3114569 -1.3330352 4281026387
4.6070809 -1.2734613 -1.2635505 4278983458
4.53234 -1.2828057 -1.2446002 4293520110
4.5160427 -1.3081777 -1.2422314 4294506996
4.504231 -1.3347675 -1.2411786 4293125592
4.4941096 -1.3618207 -1.2406522 4289834915
4.4893551 -1.3905113 -1.2417051 4284830276
4.4890175 -1.4206491 -1.2440737 4286404677
4.4912324 -1.4517243 -1.2472322 4285155893
4.4785757 -1.4780462 -1.2461795 4283906600
4.4584503 -1.5018055 -1.243021 4283380510
4.4628377 -1.5338339 -1.246969 4283316508
4.4260273 -1.5516204 -1.239073 4285553970
4.4382277 -1.5865371 -1.2453898 4281935360
4.4474463 -1.6206716 -1.250917 4285619514
4.459126 -1.6559854 -1.2572337 4286275653
4.4777575 -1.6942328 -1.2656561 4285419562
4.4690785 -1.7223694 -1.2661825 4287063603
4.465611 -1.7525765 -1.2682881 4288184127
4.4870281 -1.7928226 -1.2777634 4287134291
4.6037493 -1.8722621 -1.3154008 4291548621
4.0321069 1.5562745 -1.1929173 4294966271
2.7817547 1.0542388 -0.80839509 4292138194
2.817914 1.0482099 -0.81745237 4286476622
4.0275497 1.4699273 -1.1830367 4286933818
4.0473571 1.4490758 -1.1863303 4285686344
3.1969378 1.1226044 -0.92641407 4280885514
3.9857292 1.3720756 -1.162452 4285354784
3.9767611 1.3417544 -1.1572373 4292198024
3.9803538 1.3158195 -1.155865 4294636505
3.9883528 1.2913718 -1.155865 4294504162
3.7551184 1.1904718 -1.0836812 4290359970
4.1627879 1.2916154 -1.203347 4288384638
4.2322855 1.2847575 -1.221736 4286607205
4.4447412 1.3195006 -1.2826667 4281935641
4.1092048 1.1925355 -1.1805665 4294700498
4.4772515 1.2695781 -1.2876071 4283249945
4.4784703 1.2402862 -1.2856858 4293969314
4.4841394 1.2122817 -1.2851368 4294624667
4.4952126 1.1857255 -1.2862347 4294493079
4.5145106 1.1612343 -1.2898028 4294164124
4.5541968 1.141693 -1.2994089 4291996318
4.824553 1.1780301 -1.3768075 4292276204
4.8588214 1.1548514 -1.3847668 4286091661
4.8498888 1.1213353 -1.380101 4292996836
4.8501105 1.0900803 -1.3781798 4293125340
3.1797256 0.69432342 -0.88826376 4289703596
4.7502351 1.0065686 -1.3452442 4294638573
4.7553797 0.97720927 -1.3449697 4294636772
4.765059 0.94876319 -1.3460675 4294900716
4.7641807 0.91823411 -1.3441464 4294639357
5.027801 0.93706346 -1.4190747 4283985529
5.2284141 0.94127971 -1.4756141 4283724153
5.2492499 0.91181302 -1.4800054 4282275676
5.281301 0.88403028 -1.4876903 4283196273
5.3236513 0.85756969 -1.4983944 4283592316
5.3449678 0.82738781 -1.5030603 4281551448
5.3689675 0.79740006 -1.5085496 4284249216
5.3947039 0.76741964 -1.5145878 4282342508
5.3916883 0.73326778 -1.512392 4281554537
5.4246945 0.70388126 -1.5206259 4280964194
5.4317746 0.67093617 -1.5214493 4281290072
5.0251141 0.58945376 -1.4034303 4281093195
4.9024806 0.54460472 -1.3672012 4281811003
4.8502612 0.50870025 -1.3512824 4285097308
4.7719493 0.47090963 -1.3279531 4286148461
4.7220855 0.43675402 -1.3128576 4287269263
4.6949773 0.40521082 -1.3043493 4288454049
4.7577629 0.38122916 -1.3216404 4289902523
4.7628894 0.35224146 -1.3224639 4288325031
4.7745547 0.32365984 -1.3252084 4281155403
4.7889285 0.29512557 -1.3287765 4280893522
5.4368134 0.30152607 -1.5134898 4281223257
5.3646083 0.26451954 -1.4923563 4282146687
5.1989675 0.22439536 -1.4445997 4282079854
1.8273389 0.067890912 -0.4812355 4282988343
1.8113816 0.056174073 -0.47656965 4284829505
1.8097695 0.045011178 -0.47602069 4286868554
1.7542485 0.03287312 -0.4601019 4287131734
1.7515327 0.022072915 -0.45927849 4280556823
1.7256725 0.011163158 -0.451868 4281018666
1.7276317 0.00057463039 -0.45241693 4281347885
1.7199101 -0.0099795666 -0.45022121 4282004785
1.7275087 -0.020626113 -0.45241693 4282267187
1.7283112 -0.031243114 -0.45269138 4282266928
1.7425065 -0.042199653 -0.45680833 4281608744
1.7095357 -0.051891349 -0.4474766 4282070579
5.1868629 -0.19009048 -1.4407573 4281550423
5.2038527 -0.2226954 -1.4459721 4281554540
5.1668515 -0.25287953 -1.4358169 4281751916
5.2026486 -0.28664386 -1.4465209 4283197555
5.1076913 -0.31285176 -1.419898 4284709252
5.1613216 -0.34794155 -1.4358169 4282799717
5.1821055 -0.38129953 -1.442404 4284573290
5.2975698 -0.42250085 -1.4761629 4286608500
5.3015847 -0.45557493 -1.4780842 4281740582
5.326458 -0.49065626 -1.4860436 4285100386
5.3444004 -0.52540082 -1.4920818 4282400570
5.3515959 -0.55928379 -1.4951009 4283650638
5.3614445 -0.59359241 -1.4989433 4280624932
5.354836 -0.62614316 -1.49812 4279770654
5.3547111 -0.65945846 -1.4992179 4280557864
5.3868022 -0.69699341 -1.5096474 4279704097
5.3576488 -0.7266711 -1.5025114 4279573024
5.3702264 -0.76196408 -1.5074517 4280032545
4.7233863 -0.69973129 -1.3221893 4286874756
