# .PCD v0.7 - Point Cloud Data file format
VERSION 0.7
FIELDS x y z rgb
SIZE 4 4 4 4
TYPE F F F U
COUNT 1 1 1 1
WIDTH 1151
HEIGHT 1
VIEWPOINT 0 0 0 1 0 0 0
POINTS 1151
DATA ascii
76.646904 -30.106861 26.406738 4280956209
76.126137 -30.985929 26.356407 4288061601
75.917862 -31.445524 26.350613 4287338906
75.069527 -32.725712 26.260933 4287866532
74.472122 -33.558784 26.194132 4288063139
87.653206 -14.109012 27.394949 4289574838
85.874794 -17.087004 27.017937 4293722107
85.473465 -17.553045 26.925158 4293393653
85.246353 -18.052223 26.888044 4293262069
84.091431 -19.431515 26.632383 4288061601
43.917816 13.330523 13.609219 4292999935
92.98587 -6.8418622 27.614246 4292279549
91.641037 -8.4414568 27.256809 4292344314
90.680016 -10.039373 27.021639 4292999926
90.343361 -10.563628 26.940222 4293591034
90.037956 -11.088349 26.869019 4293721339
89.630623 -11.596927 26.768311 4293721337
89.278412 -12.108786 26.68491 4293785590
88.956528 -12.621474 26.611437 4292599774
88.268036 -13.630795 26.453709 4288522915
87.568245 -14.625133 26.295982 4288852909
87.337967 -15.138093 26.254282 4288391845
87.014091 -15.632504 26.185349 4289378740
79.163925 -27.218033 24.796448 4288522913
72.927376 -36.132885 24.108805 4294309878
94.914116 -4.6852727 26.994059 4293393915
92.454941 -7.4124713 26.347708 4287601302
80.195572 -25.426607 23.901512 4284446593
79.948357 -25.889156 23.874763 4289247683
79.479698 -26.819387 23.831364 4287402137
78.440933 -28.087433 23.671141 4284509031
78.073723 -28.497618 23.61273 4283323992
77.788284 -28.935547 23.579702 4285562497
77.584984 -29.403099 23.572332 4282931552
77.345673 -29.856426 23.554863 4281614917
77.092079 -30.303349 23.533846 4290693321
75.993347 -31.498419 23.371714 4283852914
75.689613 -31.918133 23.33814 4282997615
75.440178 -32.359577 23.322035 4281879388
75.205811 -32.806858 23.31139 4284312186
74.315468 -34.060139 23.225956 4283260266
73.935898 -34.436687 23.173004 4281878864
73.701462 -34.87941 23.16618 4288983731
73.456589 -35.316807 23.1569 4294243833
99.14183 1.8607999 26.898571 4293722107
87.722488 -14.635157 24.128338 4284902775
87.4646 -15.14432 24.082573 4284442224
87.249374 -15.659056 24.04936 4284771189
86.663895 -16.103487 23.914942 4285034619
86.419373 -16.607258 23.875191 4285100924
86.073486 -17.08909 23.808243 4284772209
85.801537 -17.582998 23.762478 4281548605
85.455002 -18.059046 23.696838 4289640374
85.21244 -18.55471 23.660749 4283454809
84.805023 -19.011766 23.579679 4283915876
84.593658 -19.51029 23.553789 4285693313
84.070389 -19.933676 23.44186 4285429889
83.808647 -20.415569 23.403418 4283521893
83.515129 -20.887741 23.356869 4283587685
82.229378 -22.724318 23.14661 4283189584
81.950943 -23.189547 23.107904 4281940291
81.229874 -24.065977 22.986301 4286548624
80.99939 -24.539314 22.963287 4287930791
80.745872 -25.00445 22.934521 4290299339
80.123436 -25.893425 22.84639 4288193700
79.519745 -26.780449 22.766367 4290496200
78.568878 -28.08077 22.638485 4289575351
78.284462 -28.522022 22.606581 4289443512
78.013878 -28.966892 22.579382 4288522150
77.721825 -29.40234 22.546694 4288587943
77.439079 -29.839811 22.517403 4288654249
76.481514 -31.099466 22.401814 4288325031
76.217896 -31.538639 22.380892 4288588205
75.872604 -31.942419 22.336697 4288588205
75.654778 -32.398624 22.330681 4288588205
75.05204 -33.236259 22.27158 4288916918
74.785088 -33.668411 22.253273 4288523179
74.507759 -34.094921 22.232613 4288656046
73.985138 -34.960083 22.203062 4289246388
73.724861 -35.39209 22.189724 4294114044
73.462929 -35.822639 22.176649 4294309624
44.338284 14.351998 12.084514 4289712618
43.856388 13.603752 11.907245 4290435563
43.708172 12.971992 11.823117 4282007879
89.665634 -12.167702 23.433739 4281217334
89.455093 -12.698601 23.398685 4284770156
88.508904 -13.674326 23.193624 4285296500
88.183418 -14.178572 23.130779 4286416777
88.06897 -14.715081 23.124018 4284640623
86.918953 -16.172838 22.896673 4289509305
86.677376 -16.678783 22.859617 4288917168
84.637863 -19.542225 22.496817 4288259238
83.936432 -20.468374 22.375633 4288588454
83.759483 -20.970551 22.362362 4288522915
83.463257 -21.441456 22.318045 4288654501
83.040459 -22.97024 22.314289 4288322453
45.830505 16.40733 12.025023 4289778665
45.614246 16.014833 11.942494 4290041835
45.31963 15.599696 11.840351 4289514713
44.951725 15.165191 11.720028 4290435815
44.918552 14.847641 11.687495 4292735223
44.466568 14.396177 11.547078 4291875537
44.095905 13.977821 11.428669 4285689193
43.677799 12.67441 11.236821 4286154883
97.494514 -0.58024848 24.051853 4285690743
96.899506 -1.7660387 23.908804 4290494147
95.977661 -2.9277856 23.68873 4284705646
95.710464 -3.5075738 23.627731 4284705646
94.975525 -4.6483226 23.458847 4282994008
94.136009 -5.7659879 23.267479 4290825169
93.933197 -6.3323212 23.226574 4284904313
93.63015 -6.8892598 23.161747 4285957001
91.819145 -9.0263643 22.762264 4288915628
91.684776 -9.5815134 22.743126 4288914341
91.465019 -10.126273 22.703657 4287137928
85.322617 -19.143431 21.575296 4290035389
82.314156 -23.307833 21.108835 4283586385
79.572617 -27.358538 20.762457 4283191637
79.848549 -28.00243 20.878714 4283915613
76.5009 -31.671375 20.43067 4285035121
76.215645 -32.102489 20.40675 4285431162
75.921738 -32.528622 20.381153 4286418057
75.386345 -33.400036 20.345989 4285891459
73.820427 -35.453815 20.207726 4294310394
73.575317 -35.89333 20.200548 4291151299
47.572792 18.693394 11.992867 4289777893
46.59304 17.651485 11.691206 4290170071
46.599167 17.327593 11.665915 4293194485
46.004311 16.466677 11.466099 4285754984
45.817833 16.083469 11.395013 4281540633
45.344692 15.295005 11.230284 4284696639
44.872807 14.829809 11.091073 4284169523
44.75174 14.485828 11.039124 4284301368
44.296783 14.038877 10.905838 4284498747
44.127277 13.687775 10.84341 4283776566
43.900162 13.322601 10.767538 4283381808
43.828922 13.007829 10.7304 4281808695
43.808788 12.709896 10.706249 4279510827
99.934769 2.4645548 23.423883 4290165184
99.718254 1.8470656 23.370111 4286414981
84.724564 -19.562243 20.379242 4283784797
83.356987 -21.414156 20.170996 4284244841
83.179771 -21.913561 20.160288 4282072904
82.88958 -22.381903 20.122921 4291941076
82.117538 -23.803532 20.03862 4284704878
81.739357 -24.238569 19.982344 4284245608
81.377571 -24.675522 19.930624 4283720291
79.848816 -26.912905 19.749491 4281154112
79.251602 -27.799213 19.684782 4278982943
78.903511 -28.222006 19.641037 4280628022
77.933563 -29.504103 19.531673 4279706148
77.724709 -29.971581 19.525066 4281021751
77.087059 -30.817579 19.458536 4287995806
76.525848 -31.687849 19.413652 4284508267
75.930756 -32.538639 19.362616 4288521901
75.603821 -32.949081 19.33049 4289640380
75.281822 -33.35989 19.300188 4286285450
74.960304 -33.769192 19.270567 4287536033
74.711853 -34.210262 19.260315 4288458418
74.452866 -34.645859 19.248013 4288853946
74.172859 -35.070824 19.230923 4287864480
73.908875 -35.50251 19.21862 4293849076
73.659019 -35.940395 19.210646 4293585131
47.182434 18.228586 11.23702 4284433215
46.959282 17.811998 11.157866 4284235064
46.835289 17.436996 11.102934 4284956477
46.452618 16.970711 10.987662 4284431668
45.772213 16.088242 10.779827 4284300339
45.539612 15.693199 10.702403 4284300339
45.057697 14.91108 10.545824 4284299828
43.737461 12.708273 10.12172 4284246120
91.109909 -10.621018 20.351255 4284047967
89.485832 -12.664709 20.05237 4284769378
89.377464 -13.209263 20.045883 4284769378
89.11525 -13.729774 20.005657 4283190346
83.352638 -21.921825 19.124144 4287537567
83.098724 -22.401091 19.097109 4287074445
81.713219 -24.193663 18.909821 4287270795
81.095856 -25.097319 18.836937 4287467404
80.325302 -26.488546 18.768164 4287602331
80.07058 -26.950394 18.746969 4287668383
79.857536 -27.425335 18.736156 4288062882
78.84655 -28.71122 18.62002 4288260008
77.317596 -30.872301 18.474255 4288390307
76.814735 -31.769901 18.445923 4288653479
76.061172 -33.110622 18.408293 4288521891
75.685165 -33.500828 18.366768 4288456098
75.386482 -33.923328 18.344492 4288784293
73.897926 -36.018787 18.242846 4294770168
47.637455 18.709208 10.752837 4284170287
46.410316 16.602861 10.357171 4283972146
43.679588 12.66415 9.5586624 4281219129
96.797813 -2.3822031 20.314026 4285165167
96.167587 -3.5479753 20.189587 4284704616
95.833046 -4.1245971 20.124393 4285362546
93.600876 -6.9101849 19.69162 4283916902
93.40744 -7.4724364 19.660255 4285562495
93.137497 -8.0262718 19.613512 4287470491
92.737587 -8.5653744 19.540119 4289839039
92.122223 -9.6500425 19.43413 4289771706
90.8964 -11.21665 19.216206 4286876296
74.053146 -36.148705 17.293226 4294638581
46.171745 16.538593 9.6907701 4284103738
44.992157 14.575027 9.3460894 4282859071
43.712631 12.692788 8.9963846 4280230425
98.749878 0.035455994 19.478638 4288256920
98.292984 -0.56783795 19.388988 4287992976
97.479103 -1.7595791 19.231525 4288192674
97.041214 -2.9432666 19.150959 4287928733
79.976974 -26.934427 16.651052 4280821808
79.754524 -27.405519 16.63946 4283717470
79.545982 -27.880737 16.631346 4282993231
79.335526 -28.354761 16.623425 4280558890
79.09552 -28.817509 16.6099 4284440676
78.810509 -29.262672 16.587488 4284507239
77.601822 -30.45068 16.448572 4288850351
77.345184 -30.898964 16.434082 4287139987
77.114143 -31.356703 16.425581 4279771422
76.840508 -31.796263 16.408579 4281482553
76.231674 -32.645668 16.362982 4284509806
75.924683 -33.066971 16.340376 4284181355
75.603729 -33.480564 16.31526 4285562497
75.355728 -33.925301 16.306372 4279178782
74.823418 -34.796177 16.282413 4279050017
74.29879 -35.667595 16.26232 4291942357
43.875225 13.01324 8.490406 4279438859
43.773857 12.691481 8.4556971 4278979848
76.799828 -29.63032 15.245327 4287799457
76.879868 -31.850159 15.411419 4287601559
76.6241 -32.296459 15.399608 4287536285
75.57444 -34.061726 15.352179 4286153345
75.327362 -34.508007 15.344728 4285758837
48.751411 20.203449 9.1297932 4280032536
48.847996 19.893156 9.1248665 4286875267
47.593323 18.368258 8.8269224 4279831558
20.048399 7.3157234 3.7121027 4283449911
19.938896 7.1374297 3.6839051 4280688155
19.929317 6.9963431 3.6742227 4287005829
19.917824 6.8553233 3.6643705 4280293914
19.967918 6.7358155 3.6658993 4281674797
20.034136 6.6215196 3.6704857 4282135091
20.110014 6.5100026 3.6769404 4281345836
20.156155 6.3885727 3.6781297 4282663495
23.333509 4.6448979 4.134388 4291217346
23.267708 4.4835467 4.1179113 4294900989
23.400377 4.3603768 4.1364264 4288585372
23.780296 4.1298995 4.193841 4288981923
24.803448 3.6830423 4.3557229 4282401345
26.048559 2.8927352 4.5510683 4282268733
33.99332 -17.365932 6.6132355 4279833373
33.879128 -17.570557 6.6118765 4280689450
33.742771 -17.763412 6.606441 4281809976
33.609676 -17.957584 6.6018543 4281745464
33.464203 -18.144684 6.5950599 4281479982
33.335835 -18.340649 6.5918326 4283386439
33.214069 -18.540045 6.5901337 4285031523
49.126656 20.355625 8.5416889 4279967002
20.270866 7.2559361 3.4784038 4294637051
20.307554 7.1288037 3.4771399 4293256685
20.339706 7.0002089 3.475244 4294178557
20.325205 6.8560243 3.4656069 4291680474
19.554953 6.4628563 3.3287914 4293391862
19.473049 6.3035212 3.3084111 4292470760
19.42288 6.1558762 3.2935605 4293063410
19.471603 6.0400944 3.2954564 4293128690
19.52247 5.9248056 3.2978261 4292601570
19.593483 5.8153014 3.3036716 4293522420
19.618364 5.6919422 3.3019338 4291154132
19.665272 5.5749598 3.3039875 4292469730
19.764771 5.4723706 3.3148885 4292469984
22.401793 4.0317416 3.6754119 4289838260
22.886534 3.685427 3.7425559 4290233800
23.305367 3.3139927 3.7999048 4283322186
29.680565 0.73224282 4.7838397 4282532157
59.787056 -23.47691 10.310339 4285951587
76.31134 -33.257427 13.352196 4284573541
34.14558 -17.182341 6.1494684 4282732377
33.374947 -18.364191 6.1284566 4287800506
33.260777 -18.568148 6.1282983 4279769902
33.147079 -18.772367 6.1284566 4281611328
32.980751 -18.946379 6.1191354 4281809471
49.984421 21.436926 8.0650768 4284568400
48.664513 20.167435 7.8126459 4280490006
48.786423 19.868082 7.8125 4282199593
46.964935 17.466608 7.4331226 4283580217
46.671619 17.032267 7.370307 4283711290
46.210835 16.543497 7.2817802 4282133030
20.336636 7.1393609 3.2165818 4282728257
20.419346 7.0279675 3.2227173 4283781456
20.638306 6.9620008 3.250181 4281677109
20.754839 6.8597655 3.2617214 4282993478
20.865244 6.7545323 3.2723856 4292270293
20.94779 6.6395321 3.2788131 4290888640
21.016479 6.5196681 3.2831957 4289244585
19.034113 5.7767978 2.9711623 4289245096
19.002815 5.6401901 2.9609365 4289574581
18.940157 5.4953613 2.9460361 4289968832
18.945919 5.3712163 2.9417996 4289903806
18.964218 5.250905 2.9396083 4290168517
19.065794 5.1532912 2.9502723 4289445562
19.042532 5.0218272 2.9419458 4289971908
19.179335 4.9322448 2.9581609 4289971653
19.347414 4.8491106 2.9791968 4289840069
19.434465 4.7443862 2.9879618 4289971139
19.546946 4.6449523 3.0006711 4290102722
19.689775 4.5514469 3.018055 4290036929
19.826401 4.4550614 3.0345623 4289971390
19.961611 4.3569584 3.0509236 4290366664
20.167976 4.2725391 3.0780952 4290760395
20.316877 4.1740003 3.0966477 4290694084
20.335314 4.0479078 3.0956252 4290496705
20.550163 3.959754 3.1242573 4293917687
20.649929 3.8477247 3.1356518 4286943370
20.753962 3.735496 3.1477766 4281285425
21.021133 3.6505811 3.1844435 4286812295
21.145584 3.5386796 3.1997821 4291483598
21.32024 3.4335694 3.2227173 4288589475
21.378056 3.3084376 3.2282684 4289116595
21.500698 3.1924634 3.243607 4290365637
21.621742 3.0749693 3.2587998 4293587182
22.388725 2.9042532 3.3676317 4281940540
1.7002474 0.18771882 0.28644854 4283124044
1.7338352 0.18068829 0.2912693 4282729286
1.6768179 0.15393087 0.28250432 4282334787
1.6718172 0.1431288 0.28162783 4282268994
1.6706916 0.13270998 0.28133565 4282400580
1.6655551 0.12201849 0.28045917 4282203201
1.6623243 0.11152889 0.2798748 4281479478
1.6540908 0.10077924 0.27856007 4281676857
1.6566535 0.090737633 0.27885222 4283584855
1.6552031 0.080473423 0.27856007 4283190350
1.6527007 0.070187755 0.27812183 4284506208
1.7015412 0.061839372 0.28527987 4285624941
29.778028 0.73569387 4.4324312 4282071605
29.812645 0.55353594 4.4369597 4282203455
30.140926 0.3746565 4.4850211 4282137660
30.349409 0.19101743 4.515552 4284243038
28.611263 -0.69791216 4.2600532 4290892240
88.559593 -15.910141 13.32056 4282006074
83.419594 -23.068888 12.814528 4283714380
83.224113 -23.565483 12.806494 4282794048
83.028549 -24.061375 12.798898 4281610287
82.010292 -25.411665 12.712124 4281479728
81.356239 -26.307489 12.659972 4282399294
34.496067 -13.30007 5.4932861 4285159759
34.202236 -14.160425 5.5001516 4285162580
75.252106 -35.011501 12.289945 4286418317
74.779343 -35.914337 12.283809 4284973464
34.138939 -17.177002 5.6772046 4280955965
33.884304 -17.573242 5.6703386 4281812296
33.757458 -17.771145 5.6672707 4282601810
33.618984 -17.962557 5.6624503 4281551952
33.484653 -18.155771 5.6585059 4279317309
33.359623 -18.353735 5.6563148 4281950319
33.234283 -18.551331 5.6542692 4279311394
33.112942 -18.751003 5.653101 4279969563
32.990406 -18.949884 5.6519322 4287339917
19.152325 8.2167807 2.8517919 4284696892
19.328388 8.1522551 2.8702819 4284827963
19.411917 8.0475454 2.8752394 4282788907
19.515997 7.9507165 2.8832786 4284235074
19.617775 7.8521767 2.8910496 4284694850
19.820528 7.7925696 2.9135594 4284300844
19.948399 7.7018576 2.9252162 4284432681
20.086092 7.6137323 2.9383469 4284234789
20.216022 7.5214415 2.9504056 4286012212
20.339056 7.4254632 2.9615264 4288841061
20.46447 7.3292594 2.9730492 4284432428
20.369743 7.154624 2.9530854 4282066215
20.397329 7.0240183 2.9508076 4290817439
20.656004 6.9716144 2.9816244 4284105783
20.828234 6.8876753 3.0001144 4284631616
20.870104 6.7597456 3.0001144 4280816662
21.011316 6.6633143 3.014317 4281541665
21.118057 6.5548286 3.0236959 4282596144
21.612083 6.5630484 3.0878754 4281017888
21.746944 6.4585271 3.101274 4284373334
21.845167 6.3420982 3.1095812 4292531927
22.026678 6.2485037 3.1296792 4290163377
22.161058 6.1399555 3.1432118 4288849308
18.915207 5.1159563 2.6833711 4289771178
18.961575 5.0038438 2.6855149 4289572770
22.602383 5.8164496 3.1895709 4289835942
22.61746 5.6725922 3.1867573 4289244318
22.708639 5.5475817 3.1946623 4288980633
22.809738 5.4241867 3.2040415 4288389525
22.886038 5.2941771 3.2100708 4289442211
23.057318 5.1849566 3.2293649 4289639590
23.123552 5.0509944 3.2341883 4289113248
23.820112 5.0502076 3.326237 4290231212
23.888508 4.9117379 3.3314624 4289180575
23.900703 4.7615833 3.3290505 4290035631
23.934334 4.6157799 3.3297205 4288718751
24.452223 4.5602126 3.3971155 4287797139
24.351007 4.3869004 3.3794293 4288519319
24.63522 4.2822032 3.4148018 4289638313
24.651257 4.1293268 3.4134619 4292138447
1.6358838 0.26408029 0.25808713 4294047733
1.6404111 0.25449282 0.25848907 4282269757
1.6419419 0.24442264 0.25848907 4282598211
1.6296755 0.23238792 0.25661328 4282861385
1.6438357 0.22412144 0.25835511 4282335037
1.6432146 0.21377559 0.25808713 4282137912
1.6503962 0.20441851 0.25889105 4282071608
1.6457143 0.19359472 0.25808713 4282268733
1.6449013 0.18327416 0.25781915 4282137660
1.6479658 0.17338471 0.25808713 4282137660
1.6470264 0.1630749 0.25781915 4282137660
1.6450357 0.15269177 0.2574172 4282137660
1.6419924 0.14225394 0.25688124 4282072380
1.639871 0.13193846 0.25647929 4282137658
1.6376848 0.12165435 0.25607732 4282137658
1.6354343 0.11140207 0.25567538 4282137658
1.635098 0.10130411 0.25554138 4282137658
1.6366782 0.091324396 0.25567538 4282071867
1.6362178 0.081231304 0.25554138 4282137660
1.6347054 0.071104467 0.25527343 4282268987
1.6351109 0.061072763 0.25527343 4282269246
1.6413981 0.051222838 0.25607732 4282269246
1.6416813 0.041150443 0.25607732 4283650897
1.5883993 0.030076325 0.24884209 4286282617
31.719234 -0.37989226 4.3229604 4291216316
31.931316 -0.57840794 4.3520355 4287335558
32.00246 -0.77615088 4.3622184 4292928991
32.141708 -0.97689682 4.3817801 4293851375
32.358925 -1.1822761 4.4120612 4292798688
32.483727 -1.3864688 4.4300156 4293390055
28.457989 -1.389577 3.8862991 4294311157
33.523022 -1.8432158 4.5733805 4293653227
33.739571 -2.0628471 4.6043315 4293915885
33.892391 -2.2810116 4.6268411 4293257441
35.088444 -2.5778892 4.7909741 4293322979
35.246819 -2.8070664 4.8146896 4291218886
35.563644 -3.052012 4.8601112 4286943623
35.594574 -3.2747998 4.8669443 4287798417
35.995918 -3.5345957 4.9242907 4291022528
38.373966 -4.7215424 5.2615337 4292204749
38.500542 -4.9771147 5.2828374 4294047725
39.879955 -6.1539798 5.4898462 4283977554
39.684898 -6.3734193 5.4684081 4285295463
39.56757 -6.8536758 5.4634509 4284243812
39.546227 -7.1001821 5.4663987 4283914582
39.358803 -7.5662317 5.4530001 4279703828
39.080303 -7.7616429 5.4211111 4281940279
39.525108 -8.1023893 5.4891763 4281479989
39.048042 -8.2545719 5.4302225 4280624421
38.527042 -8.6396666 5.3724742 4284308051
37.857937 -9.224658 5.3023996 4282200882
37.768898 -9.4488382 5.2979779 4282333751
37.617104 -9.6565046 5.2849813 4282268215
37.486229 -9.8684673 5.2750664 4282137911
37.367565 -10.082802 5.2670269 4281413678
37.193245 -10.281002 5.2513509 4281611316
37.028385 -10.480415 5.2371483 4281151276
36.891041 -10.686463 5.2269654 4282532416
36.758266 -10.892911 5.217586 4282401341
36.595898 -11.08951 5.2041874 4282730308
36.451435 -11.290393 5.1934686 4282532929
36.301167 -11.488425 5.1820798 4282138422
36.159267 -11.688088 5.1720309 4283388236
36.035114 -11.892655 5.1646619 4284244568
35.912628 -12.097088 5.1576943 4284770140
35.76088 -12.290803 5.1467075 4286610804
35.606236 -12.482457 5.1354527 4281741865
35.450592 -12.672676 5.124198 4281676329
35.324677 -12.872654 5.1173644 4280361490
35.208801 -13.075704 5.1121392 4280821012
35.058388 -13.265191 5.1020899 4284701770
34.768433 -13.645536 5.084002 4282202675
34.656445 -13.847583 5.0799823 4280952105
34.515743 -14.037569 5.0719433 4279900950
34.343807 -14.213845 5.0594826 4279242756
34.07206 -14.593647 5.045548 4283781959
33.792549 -14.967322 5.0310774 4287206783
33.672062 -15.161775 5.0269237 4286350457
33.129032 -15.906352 5.0028062 4285102473
34.335289 -17.007128 5.2146387 4285172903
34.199303 -17.201899 5.209949 4283594370
32.655441 -16.677179 4.9916854 4283858560
33.957481 -17.605684 5.2056613 4283926930
33.816368 -17.796637 5.2007041 4286423219
33.688175 -17.99399 5.1978903 4285172383
33.554485 -18.18808 5.1944065 4287150027
31.884508 -17.536827 4.9540353 4283727510
33.293282 -18.578676 5.1889133 4284840340
33.034424 -18.969551 5.1844916 4288853427
31.378597 -18.275627 4.9437184 4290428859
31.250507 -18.458746 4.9413066 4287995547
19.002331 8.2911367 2.5798607 4291605169
19.153181 8.2174387 2.5932662 4287592058
19.259024 8.1232948 2.6007004 4285619038
19.404776 8.0448885 2.6134965 4292989152
19.550285 7.9649982 2.6262929 4287331455
19.712128 7.890264 2.6412828 4284503886
19.821135 7.7931371 2.6493261 4280688145
19.927837 7.6942539 2.6571259 4279306752
20.026646 7.5915389 2.6639504 4279175424
20.142614 7.4944773 2.6730907 4279962114
20.298237 7.4109168 2.6874714 4288909441
20.400326 7.3066483 2.6949053 4284761911
20.374542 7.1566625 2.685765 4281868316
20.376778 7.0172896 2.680403 4282066726
20.797497 7.0197506 2.7293944 4282197802
20.961739 6.9322157 2.7451155 4282855211
20.949112 6.7857237 2.7380471 4282723625
21.235394 6.7347822 2.7696114 4281606690
21.210911 6.5840516 2.7612023 4282201911
21.560513 6.5478215 2.8009317 4283980103
21.769642 6.4657159 2.8226244 4282797356
21.900408 6.3585906 2.8343239 4283192883
21.995348 6.240078 2.8415141 4282533421
22.092524 6.1214347 2.8490701 4282926390
18.984221 5.1347904 2.4489729 4282464818
19.00769 5.0161819 2.447998 4284899161
22.60709 5.8181615 2.9004989 4282728506
22.60578 5.6701593 2.8958678 4282728758
22.725958 5.5523157 2.9067142 4283255614
22.784704 5.4187393 2.9098828 4285821282
22.983847 5.3173208 2.9308443 4283715387
23.053808 5.1846895 2.9355972 4288387718
23.151121 5.0575442 2.9438844 4286416240
23.843904 5.0558391 3.0269992 4286480752
23.903646 4.9154396 3.0306554 4283120430
23.91486 4.7649913 3.0283399 4280093447
23.913435 4.6123338 3.0245619 4292597183
24.42524 4.5558071 3.0850091 4281939755
24.450779 4.4054995 3.0847654 4280820519
24.71204 4.2962012 3.1140139 4284703074
24.693888 4.1371083 3.1085298 4282926917
1.5925707 0.25566906 0.23229142 4292797155
1.6098028 0.24832477 0.23424132 4290034879
1.616205 0.23917253 0.23485067 4281941569
1.6264856 0.23051096 0.23594749 4281612597
1.6278695 0.22052668 0.23594749 4282663742
1.6262391 0.21015042 0.23558189 4283386690
1.6245428 0.19980244 0.23521627 4282728760
1.6336244 0.19075722 0.23619123 4282795582
1.6347642 0.18072988 0.23619123 4282729021
1.6299195 0.17007349 0.23546001 4282729021
1.6309323 0.1600693 0.23546001 4282663226
1.6318839 0.15005906 0.23546001 4282662975
1.6298074 0.13978662 0.23509441 4282662975
1.6306343 0.12978366 0.23509441 4282399803
1.625461 0.11933554 0.2343632 4282071608
1.6360654 0.11003274 0.23558189 4281808693
1.6337377 0.099808276 0.23521627 4281940533
1.6343192 0.089781962 0.23521627 4282006325
1.6328567 0.07965415 0.23497254 4282006325
1.6333147 0.069633625 0.23497254 4282335291
1.6327194 0.059573576 0.23485067 4282072119
1.6399987 0.049769975 0.23570375 4282203705
1.6303507 0.039458934 0.23448506 4282532670
1.6394936 0.029622287 0.23558189 4282137911
1.6336896 0.019486696 0.23485067 4283651151
1.6367561 0.0094815716 0.23521627 4286545789
1.6447239 -0.00055860844 0.23619123 4291546311
30.723145 -0.36682096 3.8068411 4289770161
30.591305 -0.55300051 3.7909982 4288650905
31.087433 -0.75278592 3.8524203 4281937185
31.184416 -0.94661874 3.8649728 4289699476
32.547813 -1.1878887 4.0332742 4282527529
28.395786 -1.3856088 3.5249574 4282398522
33.451035 -1.8378834 4.1477094 4278846979
33.884941 -2.0703235 4.2025509 4284506460
34.051838 -2.2903152 4.224731 4285098606
35.08543 -2.5761454 4.3537908 4284769119
35.261898 -2.8067281 4.3775549 4279242242
35.570358 -3.0510192 4.4177718 4281081110
35.399742 -3.2553163 4.3991261 4280883994
35.749531 -3.5088089 4.4448271 4292596185
31.160587 -3.2517147 3.8810596 4292531424
31.996733 -3.7364001 3.9896452 4291543747
31.960398 -3.9310832 3.988061 4287005061
38.650028 -4.9945769 4.8193316 4292008164
38.900936 -5.2698669 4.8543081 4292139752
39.248188 -5.5623469 4.9014716 4290886851
39.646317 -5.8671303 4.9552159 4289898662
39.968597 -6.165659 4.9998198 4283189562
39.697754 -6.3735032 4.9709368 4285492844
34.797085 -5.806076 4.3658557 4288585903
39.623398 -6.8613601 4.9717898 4286613148
39.579571 -7.1041808 4.9716682 4284047466
39.557644 -7.602459 4.9801989 4292994016
39.136414 -7.7708192 4.9334011 4292994016
39.451649 -8.0853271 4.9789805 4288126606
39.37508 -8.3217058 4.9756899 4281349951
37.791302 -9.4525394 4.8173814 4290691530
37.516003 -9.8744097 4.7975168 4288321442
37.373253 -10.082445 4.787158 4287005061
37.07098 -10.49059 4.7647338 4280426266
36.928692 -10.695493 4.7548628 4283452742
36.802418 -10.904119 4.7471848 4285031772
36.641724 -11.101528 4.7352414 4284111959
36.518871 -11.309414 4.7282953 4282402121
36.369301 -11.508126 4.7180581 4285100404
36.214893 -11.704209 4.7073336 4282795839
36.116005 -11.917492 4.7039213 4281612330
35.970711 -12.114797 4.6946592 4279769874
35.607643 -12.481107 4.6671166 4282005310
35.4659 -12.676308 4.6587076 4280098603
35.320305 -12.869221 4.6499333 4280233013
34.938519 -13.463642 4.6316528 4283391577
34.805351 -13.658189 4.6250715 4286156182
34.368298 -14.222148 4.6011853 4284899911
34.262089 -14.425059 4.5987482 4285625166
33.87188 -15.000621 4.5827832 4282997045
33.758381 -15.1988 4.5799799 4288522140
33.154205 -15.916601 4.5498786 4285559718
34.339485 -17.007204 4.7393851 4286023048
34.21941 -17.210007 4.7373133 4287669924
32.649296 -16.67219 4.5354977 4286881704
33.955406 -17.6026 4.7303667 4284647312
33.834469 -17.804144 4.7286606 4290833396
33.713203 -18.005335 4.7270765 4284121229
33.591618 -18.206181 4.7256141 4286288548
31.968576 -17.581203 4.513927 4284179061
33.274662 -18.566254 4.7128177 4286481815
33.173935 -18.777897 4.7147675 4283261288
33.05809 -18.981094 4.7147675 4293656312
37.413788 -22.096697 5.3694496 4284573012
19.015129 8.2924919 2.3283284 4284569968
19.121374 8.1995564 2.3350327 4279900708
19.316954 8.1434631 2.3525081 4294180091
19.383085 8.0316324 2.3544862 4289444792
19.582973 7.9740195 2.3725111 4284046945
19.717356 7.8880434 2.3827326 4285099877
19.830141 7.7923565 2.3904262 4288586401
19.961967 7.7030954 2.4004278 4286545529
20.053471 7.5973678 2.4057033 4286677365
20.173307 7.5015454 2.414386 4286674281
20.288052 7.4028339 2.4225192 4286541151
20.412638 7.3066802 2.4318614 4282003997
20.45521 7.1806345 2.4316416 4281015830
20.403959 7.0223207 2.4205408 4281345060
20.706604 6.9846687 2.4508755 4281542439
21.009544 6.9435644 2.48121 4282001448
20.962862 6.785749 2.4708786 4281937448
21.269403 6.7410746 2.501653 4280228375
21.183157 6.5709829 2.4869251 4279506199
21.512215 6.528625 2.5203371 4283716943
21.79866 6.469748 2.5488033 4284308551
21.896177 6.3527651 2.5555077 4284900437
22.025591 6.2440453 2.565949 4283912517
22.1315 6.1276102 2.5737524 4281080332
19.023382 5.1416521 2.2134748 4293053371
19.015169 5.0144391 2.2089684 4280884495
22.700676 5.8375206 2.6262884 4281544486
22.684004 5.6850748 2.6203532 4280754978
22.747427 5.5528522 2.6236506 4281412399
22.829424 5.4246607 2.6291459 4288449676
23.115032 5.3428984 2.6578319 4280619534
23.099861 5.1902905 2.6524463 4285622882
23.174002 5.0577793 2.6572824 4289112218
23.875534 5.0576053 2.7331188 4287269239
23.980112 4.9262118 2.7414718 4282264097
23.961145 4.7692795 2.7359762 4280816653
23.97044 4.6184058 2.733778 4286608751
24.212318 4.5111055 2.757848 4282333758
24.371601 4.3862219 2.7726855 4282137408
24.768229 4.3008704 2.8142307 4282861124
24.686317 4.1307721 2.8021407 4282598712
25.190075 4.0563273 2.8557758 4286611055
25.31959 3.9179494 2.8675358 4279767043
1.6212772 0.24106492 0.21568073 4291024592
1.6276462 0.231812 0.21623027 4290299844
1.6211587 0.22074957 0.21535102 4291810512
1.6333253 0.21220429 0.21655999 4280754978
1.6306509 0.20169128 0.21612036 4281874229
1.6328449 0.19179773 0.21623027 4281875517
1.6379427 0.18221383 0.2166699 4281283380
1.6419953 0.17247096 0.21699964 4279112211
1.64599 0.1626852 0.21732935 4278914834
1.6528956 0.15313131 0.2179888 4279770149
1.6478626 0.14247413 0.21732935 4280033321
1.6397889 0.1316466 0.21634018 4285098355
1.6405658 0.12158255 0.21634018 4285755774
1.6452475 0.11178252 0.21677981 4288716970
1.6449102 0.1016243 0.2166699 4288717989
1.6395483 0.091199599 0.21601045 4289967027
1.6430553 0.081284441 0.21634018 4283979603
1.6435233 0.07120131 0.21634018 4281149477
1.6459156 0.061188888 0.21655999 4281939505
1.6482471 0.051149782 0.21677981 4281807406
1.6475364 0.041010864 0.2166699 4282071091
1.655707 0.031048229 0.21754918 4282071606
1.6667991 0.021023778 0.21875815 4282203453
1.6609328 0.010758854 0.2180987 4282269246
1.6599737 0.00056725007 0.2179888 4285558898
1.659946 -0.0096181678 0.2179888 4289111716
1.6449476 -0.019621894 0.21634018 4294769908
30.716702 -0.56175178 3.4315827 4286732615
31.155842 -0.76104611 3.4806015 4285484866
31.300602 -0.95678788 3.4971976 4280421895
32.60725 -1.1970479 3.6424956 4282066980
32.638016 -1.3987598 3.6467822 4281737510
28.419559 -1.3926693 3.180773 4285091672
33.538376 -1.849929 3.7486665 4279697420
33.737709 -2.0686409 3.7720768 4291611092
34.129982 -2.3029859 3.8170292 4283190346
35.286118 -2.8163915 3.9486988 4279110422
35.608826 -3.0621483 3.9865069 4282861909
35.514149 -3.2736478 3.9781539 4282071107
35.945446 -3.53597 4.0283818 4289834938
31.205708 -3.2631171 3.503902 4293389554
32.038967 -3.7482674 3.6013901 4289319377
32.000568 -3.9429605 3.5997415 4284446332
38.581051 -4.9943666 4.3362336 4289704368
38.945618 -5.2847323 4.3804164 4287927953
39.229328 -5.5685816 4.4158068 4287205528
39.789257 -5.8973527 4.4823012 4287598236
40.071568 -6.1907072 4.5180211 4286147181
39.765907 -6.3935471 4.4881263 4283318850
39.353706 -7.3222513 4.4607592 4281284156
39.19482 -7.5417967 4.44801 4293256926
39.052265 -7.7631569 4.4372387 4292335048
38.926006 -7.9866481 4.4284463 4287139685
38.792641 -8.2076492 4.4189939 4284179805
38.598793 -8.4144001 4.4028378 4282537836
38.474667 -8.6349716 4.3947043 4283790233
38.289249 -8.8404741 4.3797569 4279841610
38.134678 -9.0516014 4.3684368 4290299339
38.035931 -9.2750597 4.3636007 4281745735
37.785469 -9.4599886 4.341619 4280364331
37.609264 -9.6614866 4.3282104 4281152070
37.447395 -9.8652296 4.3165603 4285098371
37.296913 -10.07072 4.3063388 4282400321
37.139584 -10.273145 4.2954578 4281742122
37.006039 -10.481062 4.2874346 4278782208
36.841747 -10.67915 4.2760043 4282664766
36.698341 -10.882116 4.2671018 4281941811
36.504372 -11.068727 4.2524838 4279770393
36.365513 -11.270731 4.2443509 4282138691
36.197124 -11.462447 4.2329202 4283717723
36.022087 -11.650685 4.2208304 4279572497
35.878189 -11.847806 4.2124777 4280689688
35.744537 -12.04741 4.2054434 4280426262
35.587231 -12.238063 4.1957717 4284506208
35.436436 -12.429871 4.1869788 4281347380
35.337044 -12.639037 4.184341 4281413436
35.18972 -12.830427 4.176208 4282402647
35.05164 -13.024295 4.1692839 4282208351
34.908783 -13.215545 4.1619201 4285104515
34.80014 -13.419122 4.1587324 4283129185
34.613529 -13.591709 4.1464229 4284245883
34.483334 -13.785389 4.1409273 4292271340
34.364956 -13.983229 4.136971 4286875257
34.242699 -14.178995 4.1326842 4286809437
34.130318 -14.378419 4.1297169 4286810208
33.965626 -14.555072 4.1205945 4281677609
33.865654 -14.75884 4.1193857 4284705619
33.599075 -14.888638 4.0981731 4282731830
33.512524 -15.096968 4.0988326 4289309857
33.36956 -15.279553 4.0927877 4283652439
33.221107 -15.458856 4.0861936 4280233272
33.158875 -15.678126 4.09026 4285301142
33.019043 -15.860632 4.0849843 4286615973
32.872868 -16.039398 4.0790496 4287207849
32.741772 -16.224913 4.0750928 4285562507
32.628284 -16.418806 4.0734439 4288655276
32.505684 -16.607845 4.0708065 4288326553
32.357288 -16.783186 4.0650911 4290167225
32.230831 -16.969372 4.0622334 4291352027
32.077011 -17.140585 4.0560789 4290035402
31.917936 -17.30818 4.0493741 4288390062
31.806782 -17.501303 4.0488248 4286878113
31.677099 -17.684023 4.0460773 4284775045
31.567997 -17.878056 4.0460773 4287208351
31.422369 -18.051119 4.0415707 4293916399
31.379723 -18.283613 4.0503635 4283716680
19.025934 8.3014374 2.073642 4289180896
19.150591 8.2163267 2.0815604 4285561996
19.307013 8.1435385 2.0929 4293786103
19.397066 8.0416918 2.0972013 4291221193
19.558483 7.968339 2.1091278 4282269781
19.724348 7.895155 2.1215427 4282667336
19.838177 7.799839 2.1284835 4283983221
19.95715 7.7055731 2.1360106 4287072147
20.070124 7.6080236 2.1429515 4280821297
20.218096 7.5225654 2.1536069 4283784290
20.344267 7.4277248 2.162014 4278190344
20.426001 7.3158445 2.1658266 4280229154
20.496794 7.1996117 2.1685636 4280556316
20.426729 7.0344944 2.1567352 4281279267
20.654322 6.9714165 2.1758955 4279239684
20.794029 6.8767433 2.1859643 4281739822
20.882225 6.7640543 2.1907544 4280358941
21.032427 6.6704001 2.2019963 4280887341
21.17561 6.5730915 2.2125542 4283124816
21.62501 6.5674133 2.2545896 4282927428
21.79369 6.4728594 2.2677867 4284309072
21.895119 6.3570538 2.2741408 4283913542
22.050518 6.2557325 2.286067 4283913291
22.162334 6.1407814 2.2935944 4284634185
19.024567 5.1457062 1.9705088 4292789168
19.033651 5.023035 1.9682604 4279897089
22.57906 5.8109469 2.3247788 4279307282
22.566994 5.6604276 2.3199887 4282137411
22.647703 5.5331926 2.324681 4289964206
22.851629 5.43466 2.341886 4284961872
22.964054 5.3127403 2.3499022 4283577907
23.096226 5.194232 2.359971 4281279780
23.165581 5.0607038 2.3637836 4288124561
23.785198 5.0433879 2.4229264 4288057990
23.876135 4.909781 2.4289873 4282201386
24.054163 4.7927542 2.4438462 4282068266
23.900387 4.6098166 2.4255657 4292920263
24.079861 4.4913707 2.4407182 4280621849
24.21862 4.363658 2.4518623 4281478703
24.426332 4.2465172 2.4699473 4278453254
24.587378 4.1192594 2.4834378 4281479728
25.200716 4.0632348 2.5419939 4292400590
25.34024 3.9263642 2.5534315 4281345564
25.457371 3.7847128 2.5627184 4291804331
1.6302245 0.22084741 0.19622652 4291876562
1.6285881 0.21045567 0.19593325 4289310889
1.6328118 0.20082542 0.19622652 4289377970
1.6340133 0.1908029 0.19622652 4289774525
1.6351534 0.1807732 0.19622652 4291813594
1.639201 0.17104866 0.19651979 4292339427
1.6441813 0.16137914 0.19691081 4292207321
1.6471224 0.15147129 0.19710633 4291154375
1.6470294 0.14127612 0.19700858 4293719789
1.6508412 0.13140649 0.19730185 4293850352
1.6496315 0.12112748 0.19710633 4292337115
27.790932 1.8877901 2.7707443 4286547069
27.979795 1.7282224 2.7882428 4283256133
1.6853663 0.092622809 0.20043005 4293323751
1.6560831 0.080803819 0.19749735 4292204500
1.6595306 0.07077007 0.19779062 4287664785
1.6569501 0.060475044 0.19749735 4284571749
1.653311 0.050183464 0.19710633 4280426790
1.6545827 0.040062789 0.19720408 4281611318
1.6587776 0.029984452 0.19759512 4281742650
1.6519644 0.019717749 0.19691081 4281940283
1.6540446 0.0095940661 0.19710633 4282071867
1.657058 -0.00055403402 0.1973996 4282861385
1.6610043 -0.01074449 0.19779062 4286019445
1.6688679 -0.021030767 0.19857268 4291216314
1.6896036 -0.031647295 0.20062557 4291611842
31.180782 -0.75504297 3.0983267 4284761660
31.252161 -0.94867271 3.105854 4279304704
31.24774 -1.140487 3.1060495 4280818971
32.491985 -1.3855342 3.229125 4284635222
28.479916 -1.3897107 2.8354592 4290557875
33.209873 -1.8246417 3.3016605 4278847749
33.524872 -2.048336 3.3338225 4294967290
33.797646 -2.2732272 3.3619764 4293322719
34.096703 -2.5035813 3.3928673 4283256390
34.3932 -2.7376115 3.4236608 4278650883
34.663315 -2.9732482 3.4520102 4289305763
35.162727 -3.2335281 3.5031369 4279764498
35.415592 -3.4760435 3.5301175 4291609290
31.247158 -3.2607453 3.1206152 4289242023
32.094437 -3.7478061 3.2085962 4288389276
32.073799 -3.9450276 3.2088895 4292599511
37.062988 -4.7895389 3.705493 4289508006
37.426395 -5.0701575 3.7444978 4287861892
38.390789 -5.4408612 3.8433297 4288387469
38.702244 -5.727447 3.8776424 4290293933
39.262421 -6.0567427 3.9368827 4286543473
39.522255 -6.3453317 3.9665031 4285293917
34.848232 -5.8146091 3.5049942 4283913810
39.448277 -6.8310409 3.9671874 4284836464
39.367416 -7.0661068 3.9633749 4285561216
39.14817 -7.2749853 3.9458764 4287007884
39.056866 -7.5062304 3.9412818 4283387719
38.894886 -7.7228699 3.9297466 4283386939
38.708321 -7.9330106 3.9158652 4284703310
38.601467 -8.1582308 3.9100976 4285163876
38.426212 -8.3678303 3.8975847 4284506208
38.306168 -8.588213 3.8907418 4283324496
38.0811 -8.7835083 3.8734388 4283851350
37.98098 -9.0062132 3.8688443 4285956216
37.852486 -9.221426 3.8615124 4285363575
37.689953 -9.4271917 3.850857 4282796871
37.532108 -9.6327953 3.8407881 4281940283
37.377014 -9.8378325 3.8311102 4282531140
37.177582 -10.029664 3.8170333 4281742389
37.016541 -10.230289 3.8069644 4283782224
36.891785 -10.439884 3.8007078 4283519565
36.750557 -10.643905 3.7928874 4280296994
36.647339 -10.858177 3.7890749 4280625959
36.431438 -11.037825 3.7738249 4283323213
36.323101 -11.248792 3.7697191 4283453771
36.17654 -11.447138 3.7618008 4282664002
36.054482 -11.652371 3.7565219 4282861634
20.722878 -6.979907 2.1825428 4284310110
35.596706 -12.232546 3.7318873 4282335803
35.301468 -12.61754 3.7170281 4282466884
21.128639 -7.9939218 2.253612 4280560687
21.055048 -8.1141109 2.2510703 4280494894
34.349358 -13.479266 3.6591563 4282796619
34.270626 -13.691623 3.6596451 4282401859
34.229301 -13.919264 3.6642396 4283191626
33.894958 -14.026291 3.6378455 4283322183
33.809177 -14.234389 3.6379433 4284703325
33.636116 -14.405136 3.6288519 4284967011
33.54253 -14.609265 3.6283629 4284046946
33.461361 -14.818832 3.6293406 4283061084
33.226421 -14.959319 3.6138949 4280956219
33.067944 -15.132682 3.6067588 4280955966
32.965446 -15.331101 3.6057813 4281942088
32.832062 -15.514803 3.6015778 4282598987
32.663574 -15.681079 3.5936594 4282599499
32.543484 -15.869863 3.5911179 4283124816
32.494549 -16.09354 3.5964944 4283256654
32.370293 -16.2801 3.5937572 4282269246
32.235222 -16.460762 3.5899446 4282598724
32.125664 -16.654123 3.5890648 4282993480
32.043125 -16.861588 3.5913134 4282269505
31.910971 -17.042879 3.5881851 4283256402
31.752424 -17.209436 3.582222 4282795852
31.663671 -17.413532 3.584177 4282270022
31.507559 -17.580334 3.5787027 4282269507
31.482241 -17.820393 3.5880873 4281940283
31.32052 -17.983498 3.582222 4282729799
31.243124 -18.194868 3.5860343 4283059024
31.13261 -18.387241 3.5862298 4282862925
19.036131 8.301652 1.8188821 4284247686
19.138906 8.2070723 1.8237607 4291416827
19.307337 8.13941 1.8348019 4294770687
19.414904 8.0448151 1.8401942 4282730049
19.570942 7.9691205 1.8501227 4286941856
19.676825 7.8718286 1.8554293 4279968045
19.804504 7.7822819 1.8627901 4278190627
19.918808 7.6864424 1.8689526 4288981698
20.076469 7.606081 1.879138 4278981673
20.220819 7.5192113 1.8881251 4283259237
20.306822 7.4096818 1.8918054 4278981914
20.357531 7.2869568 1.892319 4282137662
20.470486 7.185997 1.8985671 4281347883
20.487816 7.0511794 1.8961706 4280296735
20.578844 6.941576 1.9005357 4285427821
21.046753 6.9558611 1.9390515 4278913551
21.130743 6.8400898 1.9428176 4283912793
21.221704 6.7259574 1.9472682 4281412656
21.313011 6.6112609 1.9518046 4280361251
21.474257 6.5171061 1.9626746 4283651928
21.294155 6.3200221 1.9429888 4284245348
21.444487 6.221724 1.9530028 4283850336
21.540733 6.1066017 1.9582239 4283849820
21.698784 6.0078106 1.9690083 4284701778
19.0681 5.1537375 1.731665 4289961613
19.060829 5.0264792 1.7282413 4281148958
19.102892 4.9124064 1.7292684 4281546552
22.46401 5.6299438 2.0243001 4283318333
22.544592 5.5033417 2.0284085 4288844684
22.638033 5.3791871 2.033715 4280160010
22.725946 5.2529697 2.0385938 4282526766
22.919119 5.1496825 2.0528018 4278846983
23.064175 5.0338111 2.0628159 4285888888
23.218414 4.918417 2.0736861 4286547582
23.380886 4.8031235 2.0853264 4279969815
23.547699 4.6869922 2.0973947 4281938727
23.730593 4.5721979 2.110918 4285815387
23.863003 4.4460292 2.1200762 4284631362
24.071243 4.33217 2.1359105 4280690216
24.275047 4.21524 2.1514025 4278191120
24.439013 4.0893941 2.1634707 4288258980
24.668245 3.972306 2.1812737 4287731603
24.859537 3.8467681 2.1958241 4283714885
24.94969 3.7041087 2.2016442 4291146412
21.862783 3.1088836 1.9318619 4289765012
21.931797 2.9815216 1.9362271 4291214014
25.64106 3.3256044 2.2559946 4285096815
25.778652 3.1827374 2.2661798 4286940300
22.606382 2.6504035 1.9901493 4285164399
22.622219 2.5116436 1.9901493 4285363057
26.506685 2.7783139 2.3243816 4285560438
26.648163 2.6279383 2.335166 4285362544
26.798714 2.4768469 2.3468063 4286019698
27.013918 2.3296559 2.3640957 4284704351
27.184626 2.1764185 2.377619 4284770142
27.347506 2.0206597 2.3905432 4285164387
27.349447 1.8521476 2.3896873 4285689955
27.512445 1.693664 2.4027827 4282134829
27.692436 1.5342411 2.4174187 4282725685
27.880449 1.373114 2.4328251 4284568143
28.556265 1.2307955 2.4902565 4287197300
1.6747243 0.062253121 0.1787909 4287661962
1.6611329 0.051546641 0.17759264 4286281592
1.6554416 0.041205794 0.17707908 4281611316
1.6566596 0.031065866 0.17716467 4281414450
1.6508415 0.0208262 0.17665112 4281480243
1.6479492 0.010677769 0.17639434 4281875001
1.6559544 0.00056681159 0.17707908 4282138173
1.6559265 -0.0095939431 0.17707908 4283914069
1.7066457 -0.020372348 0.18144423 4287203719
1.715454 -0.031007819 0.18221453 4289572780
31.501263 -0.96292406 2.7422359 4284108868
31.438007 -1.15411 2.7373571 4283581499
31.525896 -1.3510847 2.745574 4291211692
28.495781 -1.3964052 2.4857202 4284108103
32.229183 -1.7777002 2.8077128 4282661171
32.527935 -1.9944493 2.8344171 4283517504
32.787464 -2.2123814 2.8578691 4282071087
33.242264 -2.4480639 2.898268 4283387976
33.423267 -2.667686 2.915215 4281677871
33.904591 -2.915575 2.9581816 4292729543
34.195599 -3.1520915 2.9848859 4286146656
34.407639 -3.3846791 3.004914 4293188562
31.322279 -3.2753081 2.7402673 4294702306
31.315456 -3.4689724 2.7414656 4292792517
32.141651 -3.7602818 2.814817 4293845189
32.126873 -3.9585252 2.8155873 4294108353
36.608631 -4.7390146 3.2059669 4293385139
36.697338 -4.9796295 3.2162378 4293911231
36.715416 -5.2117085 3.2205174 4293515965
37.125267 -5.5024834 3.2589476 4280883208
38.211334 -5.9032993 3.3563499 4285948254
38.567867 -6.2009158 3.3905864 4282659376
34.837067 -5.8205447 3.0690217 4280358927
38.837364 -6.7341666 3.4209712 4280097297
38.729614 -6.9605331 3.4152365 4279375118
38.578426 -7.1779933 3.4058216 4285428589
38.441696 -7.396874 3.3977759 4287665812
38.270496 -7.6077423 3.3868203 4288389787
38.181129 -7.8338113 3.3831398 4287468181
37.97736 -8.0351448 3.3695309 4287205002
37.85141 -8.2514658 3.362855 4288126363
37.731049 -8.468071 3.3567779 4287730326
37.455093 -8.6478701 3.3370922 4286677636
37.315052 -8.857048 3.3294744 4287138957
37.233871 -9.0794687 3.3271635 4287731092
37.104004 -9.2893696 3.3206587 4287270802
36.967178 -9.4965324 3.3136401 4286810503
36.83017 -9.7026205 3.3067074 4287798168
36.723774 -9.9159565 3.302599 4289573811
36.498032 -10.095679 3.2879629 4287533713
36.361588 -10.298531 3.2813723 4287139466
36.137905 -10.475122 3.2670789 4288454550
36.035694 -10.685616 3.2637408 4283387976
21.498785 -6.518621 1.9647288 4282072378
35.613491 -11.277621 3.2439692 4283718232
35.368244 -11.439205 3.2281349 4282994511
35.137505 -11.603205 3.21367 4281348146
35.151566 -11.847545 3.2214589 4283782487
35.006599 -12.038383 3.2149539 4287073423
34.89917 -12.24141 3.2119582 4286679948
34.742722 -12.42646 3.2045975 4287732634
34.641483 -12.630529 3.2023721 4291940815
34.509163 -12.82272 3.1974077 4286609526
20.487459 -7.7558408 1.9167124 4287664783
34.073467 -13.379637 3.1795194 4287270545
33.969456 -13.579949 3.1775508 4287270545
33.832886 -13.766721 3.172672 4287007118
33.691628 -13.950805 3.1674511 4287073424
33.605389 -14.157269 3.1674511 4286350991
33.471188 -14.343188 3.1630859 4286350991
33.362453 -14.539536 3.1612029 4285890694
33.224335 -14.722576 3.1566665 4286088073
32.997112 -14.864775 3.1438279 4285627522
32.70599 -14.975704 3.1249981 4285824897
32.630646 -15.184089 3.1266243 4286088069
32.512547 -15.372522 3.1243134 4285693313
32.38887 -15.557921 3.1215744 4286219144
32.254299 -15.737576 3.1178939 4286086529
32.288353 -16.000221 3.1304758 4285954945
32.170883 -16.188633 3.1286783 4286481035
32.03989 -16.369856 3.1256828 4286349449
31.913197 -16.552839 3.1232007 4285693054
31.798687 -16.741844 3.1220024 4285890945
31.645275 -16.909878 3.1171236 4285956738
31.495378 -17.079033 3.112673 4285890945
31.364677 -17.258034 3.1101909 4286088069
31.198168 -17.416647 3.104285 4285824386
31.111519 -17.619534 3.1063392 4285758593
30.987272 -17.801163 3.1047986 4285627522
30.867994 -17.985445 3.103857 4286022278
30.737328 -18.162851 3.1018884 4286219657
18.575035 8.1046696 1.5268302 4281551703
18.675735 8.0125656 1.5309412 4289314264
18.80541 7.9319344 1.5374016 4294311934
18.93848 7.8515406 1.5441555 4283256141
19.044485 7.7588978 1.5487804 4281216306
19.179691 7.6771092 1.5557545 4287663759
19.313681 7.5935879 1.5626553 4285032550
19.441778 7.5065536 1.5691156 4286611335
19.576996 7.4210615 1.5761632 4286679697
19.686653 7.3247991 1.5812286 4286745488
19.822098 7.2370481 1.5883496 4286678917
19.943117 7.1428647 1.5943694 4286414716
20.068432 7.0491204 1.6007563 4280756516
20.179197 6.949235 1.606042 4279440658
20.330122 6.8619709 1.6144844 4283651412
20.530912 6.7897139 1.6268176 4281478701
20.657578 6.6912737 1.6334248 4280622363
20.791407 6.5939465 1.6406192 4279965462
20.9391 6.4996634 1.6489147 4279834644
21.074013 6.4000468 1.656256 4283125834
21.208487 6.2990179 1.6635972 4284836703
21.350174 6.1988044 1.6715257 4284441953
21.506775 6.1014433 1.6806288 4283454031
21.600512 5.9850798 1.6849601 4282465334
21.735023 5.8789945 1.6924483 4288451973
19.082294 5.0358753 1.4877748 4283781448
19.11573 4.9194393 1.487995 4282597700
22.31064 5.5961146 1.7282 4281215270
22.428844 5.4797101 1.7345868 4294371300
22.541601 5.3609114 1.7406067 4283183919
22.735363 5.2598209 1.7527931 4283977797
22.90148 5.1504245 1.762924 4283385658
23.018391 5.0285411 1.7693843 4282859827
23.206861 4.9207287 1.7812771 4282268460
23.352861 4.8021517 1.7900131 4282729009
23.534466 4.6891794 1.8014654 4283781697
23.735144 4.5779362 1.814386 4283058233
23.910824 4.4598341 1.8254712 4282860854
24.067293 4.3363853 1.8351617 4282991162
24.278172 4.2207518 1.8489631 4283385409
24.422623 4.0916491 1.857846 4283385918
24.634338 3.9718888 1.8717943 4283911743
24.792282 3.8414347 1.8817784 4283910460
24.918962 3.7046432 1.8894867 4283711290
21.88345 3.1160963 1.6621289 4285357657
21.901167 2.9816289 1.6620555 4287595907
24.897879 3.2342865 1.8831732 4285096286
25.110258 3.1053324 1.8974886 4285951587
3.4193029 0.40055591 0.28843877 4294767345
3.2759926 0.36335492 0.27764717 4291808191
3.0103631 0.31511065 0.25782585 4288979870
2.8256569 0.2781868 0.24402435 4287532945
2.6714022 0.24639505 0.23249863 4285690741
2.4373825 0.20963255 0.21509992 4287269775
2.361083 0.1884459 0.20937377 4286941062
2.3064988 0.16982588 0.20526268 4286546818
2.1980464 0.14823087 0.19718733 4285296753
2.1481493 0.13160336 0.1934433 4286744712
1.9955692 0.10988608 0.18213782 4286282878
1.899586 0.092856869 0.17501684 4292467420
1.8154286 0.077528164 0.16877678 4294704636
1.7195518 0.052240934 0.1616558 4294967291
1.6959121 0.041092709 0.1598939 4279966489
1.6722014 0.030236563 0.158132 4281479728
1.6603888 0.019824263 0.15725106 4281414450
1.6425282 0.0095191291 0.15592964 4281809208
1.6315854 -0.00056348142 0.1551221 4283387214
1.6395293 -0.010620685 0.1557094 4286939009
1.6494057 -0.020799134 0.15644352 4290161324
1.6332928 -0.030631509 0.15526892 4294635246
1.6370621 -0.040749051 0.15556258 4294106835
30.463238 -1.1118834 2.2789388 4282918955
30.505663 -1.300904 2.2826095 4289896093
28.546703 -1.3929669 2.1388681 4284769629
31.35375 -1.7227265 2.346478 4285098083
31.567558 -1.9288145 2.3630693 4285558888
31.787973 -2.1381261 2.3802476 4285690731
32.170113 -2.3621862 2.4094658 4286348913
32.539757 -2.5901451 2.4378762 4285296224
32.853146 -2.8180418 2.462249 4286477416
33.154026 -3.048877 2.4858146 4285227352
