# .PCD v0.7 - Point Cloud Data file format
VERSION 0.7
FIELDS x y z rgb
SIZE 4 4 4 4
TYPE F F F U
COUNT 1 1 1 1
WIDTH 1096
HEIGHT 1
VIEWPOINT 0 0 0 1 0 0 0
POINTS 1096
DATA ascii
6.5185184 -0.7598322 -0.61497867 4288715669
6.3359485 -0.77801704 -0.59716362 4285754721
6.2747998 -0.80963117 -0.59152222 4294899684
6.2598524 -0.84678519 -0.59053248 4294965744
6.2584805 -0.88573605 -0.59092838 4293713629
6.243084 -0.92266762 -0.58993864 4294042082
6.2284532 -0.95959514 -0.58904791 4287595908
6.2263784 -0.99842352 -0.5894438 4292532952
6.2201347 -1.0366091 -0.5894438 4290429118
6.1371732 -1.0615412 -0.58172393 4291549391
4.4201798 1.1941711 -0.47320646 4282795849
4.4485664 1.1725979 -0.47564733 4286480776
4.3845325 1.0983641 -0.4666605 4285492066
4.4172583 1.0777988 -0.46965611 4286806896
4.4547305 1.0580211 -0.47320646 4285161566
4.4553285 1.0293256 -0.4725408 4284176214
5.0715928 1.1062711 -0.54155082 4284702049
5.0491171 1.0689584 -0.53822231 4285491822
5.0974426 1.0465488 -0.54299313 4283258449
6.2810535 0.8530432 -0.66969639 4294573046
6.1856389 0.80146801 -0.65837967 4288718215
6.2900629 0.77577919 -0.66958547 4281677101
3.651284 0.42776436 -0.37246516 4289374363
6.4199114 0.67207116 -0.68267739 4287599993
6.2073135 0.61134756 -0.65837967 4287731328
6.437572 0.59415108 -0.68378687 4294178543
6.4925852 0.55907029 -0.68955618 4293979360
6.5206594 0.52120012 -0.69232994 4293320393
6.5504961 0.48315251 -0.69532555 4290094488
6.5265641 0.44114235 -0.69232994 4289634186
6.5251803 0.40084431 -0.69188613 4290752919
6.5463715 0.36183998 -0.69399416 4291740591
2.0994909 0.10339303 -0.1967226 4283650123
1.9878865 0.085694119 -0.18418542 4289041285
1.8950183 0.07006266 -0.17375624 4284171827
1.8238906 0.056243457 -0.16576794 4285222971
1.8212208 0.044978242 -0.16543511 4285683522
1.7946337 0.033310436 -0.1624395 4285880901
1.7212669 0.021400468 -0.15422928 4286144075
1.7064584 0.010748078 -0.15256506 4282922538
1.7114615 0.00027691794 -0.1531198 4281542692
1.7144123 -0.010242906 -0.15345263 4281280809
1.699411 -0.020578237 -0.15178841 4281608487
1.6922972 -0.030876735 -0.15101179 4281543464
1.6970434 -0.041382164 -0.15156654 4281740073
1.6997375 -0.051885903 -0.15189937 4281740073
6.5681877 -0.28232828 -0.69599122 4284836461
6.5693092 -0.32277107 -0.69632405 4283389283
6.5443821 -0.36181039 -0.69377226 4281940816
6.5539427 -0.40269122 -0.69510365 4284244600
6.5473819 -0.44262952 -0.69465983 4289308845
6.5376048 -0.48228297 -0.69388318 4289963177
6.5285788 -0.52191234 -0.69321752 4283843399
6.5143619 -0.56102246 -0.69199705 4288517010
6.5038695 -0.60034341 -0.69122046 4287989379
6.4713812 -0.63741231 -0.68800294 4288383359
6.4673491 -0.67710793 -0.68800294 4288513652
6.4927044 -0.72006631 -0.69133139 4292132271
6.4782939 -0.75873452 -0.69022191 4282329890
4.6763973 -0.57669747 -0.48807359 4282659104
4.6570015 -0.60333616 -0.48629838 4283841579
4.6394253 -0.63002616 -0.48474514 4288117352
4.6197286 -0.65624362 -0.48296994 4284497963
4.6038189 -0.6828267 -0.48163855 4282920479
4.5916848 -0.70984703 -0.48075098 4287067495
4.5764499 -0.73627037 -0.47953051 4294044386
6.1225352 -1.0237204 -0.65505117 4290887098
4.8873997 -0.97210026 -0.51836252 4289700497
4.8745289 -1.000671 -0.51758587 4288582017
4.8799639 -1.0330323 -0.51891726 4288781462
4.8754754 -1.0633795 -0.51913917 4286548614
4.484581 1.2120504 -0.53802079 4285559155
4.2769985 1.1277751 -0.51045048 4288978853
4.2290573 1.0874094 -0.50343478 4284767321
4.3011045 1.0778613 -0.51180434 4286017388
4.4117522 1.0768924 -0.52509719 4284965997
4.4288969 1.0523282 -0.52645111 4285295472
5.0466805 1.1015517 -0.6025157 4281740083
5.045578 1.0689178 -0.60153103 4283587428
5.2960262 1.0881226 -0.63242459 4284442733
6.3757486 0.94698822 -0.76129133 4290229940
6.273366 0.89245474 -0.74775231 4290953914
6.0446949 0.82207185 -0.71845883 4286876019
6.0151801 0.78049082 -0.71415097 4287072628
3.587182 0.44260997 -0.41013876 4282797120
6.3209758 0.74147224 -0.75119859 4280753695
6.3254061 0.70267349 -0.75119859 4284506198
6.0542359 0.63491708 -0.71685874 4289245588
6.0619678 0.59814757 -0.71735108 4280099615
6.3985353 0.59180218 -0.75882965 4282665308
6.4168763 0.55381298 -0.76067591 4283060320
6.4300456 0.5152238 -0.76190674 4282402901
6.4736629 0.47876835 -0.76695311 4282536553
6.4665771 0.43836468 -0.76572227 4282142057
6.4532971 0.39769873 -0.76375294 4283260536
6.4902964 0.36002457 -0.7680608 4281155681
6.4933743 0.32024315 -0.76818389 4282146176
1.9840497 0.084837787 -0.20816138 4290685850
1.8427184 0.067386284 -0.1905607 4287590491
1.8401213 0.055985883 -0.19019145 4284828213
1.8443986 0.044792946 -0.19068378 4285091640
1.8386853 0.033363275 -0.18994528 4285815108
1.718785 0.020562591 -0.17505237 4285815110
1.6980391 0.0098803332 -0.17246765 4282527780
1.7000526 -0.00053808809 -0.17271382 4281411365
1.7000173 -0.010969403 -0.17271382 4281346604
1.693964 -0.021329444 -0.17197531 4281871917
1.6908245 -0.031669315 -0.17160609 4281872429
1.687622 -0.041971464 -0.17123684 4281871659
1.6843568 -0.052235506 -0.17086759 4281674280
1.6909469 -0.062822655 -0.17172918 4279373578
6.4873919 -0.27757365 -0.76719928 4280825925
6.3408484 -0.31031856 -0.74922931 4286876310
6.373507 -0.35112372 -0.75353718 4280626749
6.4078827 -0.39246225 -0.75809121 4279378743
6.4310985 -0.43350354 -0.76129133 4281680983
6.436235 -0.473537 -0.76227599 4278457641
6.4361763 -0.51325625 -0.76264524 4278986041
6.4319167 -0.55265343 -0.76252216 4281485922
6.4402637 -0.5931986 -0.7639991 4283393395
6.4631691 -0.63532054 -0.7673223 4283395194
6.4640846 -0.67548072 -0.76793772 4283064429
6.4302263 -0.7118603 -0.76424527 4281149736
6.3902526 -0.74715954 -0.75981432 4282133284
4.7002501 -0.57912827 -0.54922128 4283120946
4.6720028 -0.60477865 -0.54614419 4283120428
4.6524692 -0.63130307 -0.54417491 4284106034
4.6259084 -0.656636 -0.54134399 4284105005
4.5982313 -0.68152171 -0.53839004 4283053095
4.5763087 -0.7070002 -0.5361746 4282790954
4.5650253 -0.73396552 -0.53531301 4282660655
4.4938731 -0.75085807 -0.52694345 4280951327
4.5410075 -0.78739065 -0.53346676 4292466121
4.7451234 -0.85275233 -0.55980629 4284106299
4.7622428 -0.88602138 -0.56263715 4282724132
4.7801061 -0.9197197 -0.56559116 4287592049
4.8113623 -0.95637596 -0.57026827 4285026130
4.797626 -0.98428619 -0.5692836 4283253059
4.7924671 -1.0139107 -0.56940669 4278519556
4.8520937 -1.0576544 -0.57777625 4289970361
4.0659904 1.1260892 -0.53735107 4289111970
4.0862145 1.1047387 -0.53924382 4286544503
4.0718384 1.0740875 -0.53626949 4284504920
4.0831499 1.0503167 -0.53694546 4279703060
4.3931627 1.0727314 -0.57872128 4286744207
5.1256032 1.1519759 -0.67849648 4280557601
5.0832057 1.1097299 -0.67160147 4283256141
5.0831337 1.0770818 -0.67065507 4288783266
5.3885775 1.1072761 -0.71229571 4288981670
6.086761 1.0572292 -0.80463511 4289635754
6.1087694 1.0224776 -0.80679828 4286410604
6.1315575 0.98765332 -0.80909663 4285817170
6.1541481 0.95258766 -0.81139493 4291934625
6.1196942 0.90884358 -0.80585188 4293184437
6.095727 0.86709249 -0.80179596 4294372058
5.9006472 0.80244923 -0.77421582 4288782218
5.9555721 0.77272707 -0.78111088 4283318838
6.2502904 0.77198112 -0.8209939 4282462773
6.2972255 0.73857594 -0.82680738 4280621339
6.2809587 0.69762731 -0.82396823 4290759613
5.8830681 0.61693949 -0.76880795 4291811012
6.0829649 0.60017776 -0.79571211 4280891720
6.304575 0.58299124 -0.82559061 4280037710
6.3070459 0.54421103 -0.82545543 4284377718
6.3181682 0.50613391 -0.82653701 4282341999
6.3013921 0.46589696 -0.82383305 4281490564
6.3328004 0.42916462 -0.82775378 4282211969
6.3214693 0.38944709 -0.82586104 4282408570
6.2910929 0.34884366 -0.82139951 4291945715
6.2931147 0.31023568 -0.82139951 4294770680
6.3265762 0.2729809 -0.82572579 4294965484
1.8011968 0.06692519 -0.20760605 4288514163
1.8104868 0.05614651 -0.20882282 4284893746
1.8345696 0.045622692 -0.21206753 4285551930
1.798161 0.033686329 -0.20706527 4285880125
1.7161022 0.021634229 -0.19584394 4286144328
1.6914326 0.010949328 -0.19246401 4283579181
1.6974127 0.00057133404 -0.19327518 4281344284
1.689458 -0.0097960355 -0.19219361 4281543983
1.6834217 -0.020089865 -0.19138244 4281675051
1.6832666 -0.03041877 -0.19138244 4282004015
1.6830485 -0.040746525 -0.19138244 4281741614
1.6738535 -0.050800182 -0.19016567 4281740333
1.6754905 -0.061142519 -0.19043605 4279966489
6.2464867 -0.26739165 -0.81477487 4294246390
6.2674899 -0.30683005 -0.81788439 4293713370
6.0597115 -0.33392811 -0.78976345 4294107360
6.0239234 -0.36904144 -0.7851668 4293324008
6.2647343 -0.42240894 -0.81842518 4288922039
6.2531314 -0.46018562 -0.81720841 4287800737
6.2156215 -0.49578592 -0.81247652 4289182640
6.2391157 -0.53620732 -0.81612682 4289117621
6.2347221 -0.5743888 -0.81599164 4289052859
6.2379818 -0.61331254 -0.81693804 4289249985
6.2419853 -0.65240103 -0.81801957 4289971139
6.23491 -0.69036156 -0.81761402 4281150763
4.7770333 -0.5585385 -0.61792833 4281739806
4.7508979 -0.58505219 -0.61481881 4282594086
4.7383757 -0.61304724 -0.61360204 4282529069
4.7197976 -0.64011127 -0.61157411 4285818984
4.6412258 -0.65847558 -0.60129911 4281871665
4.617496 -0.68403566 -0.5985952 4282855981
4.5544605 -0.70327801 -0.59048337 4282659114
4.5324502 -0.72837907 -0.58804983 4282397483
4.5181231 -0.75454307 -0.58669788 4281740582
4.5231705 -0.78394443 -0.58804983 4282399027
4.5953155 -0.82552981 -0.59873039 4288120444
4.736279 -0.88089859 -0.61900991 4281475868
4.7609463 -0.91574728 -0.62320101 4281213484
6.0030313 -1.1930027 -0.7967937 4286276716
4.7930274 -0.98306435 -0.62928486 4287462532
6.0073266 -1.2706813 -0.7994976 4279109642
5.9887671 -1.3051962 -0.79801047 4289704104
5.9758124 -1.3408331 -0.79733449 4288454548
4.0661201 1.1533315 -0.59086865 4287202694
3.9530268 1.0950558 -0.57230991 4283583289
4.1124277 1.1121352 -0.59587657 4281938476
4.1220431 1.0876386 -0.59631842 4284242527
4.1046934 1.0561574 -0.59263617 4284966248
4.3010416 1.0786406 -0.62179989 4285887348
5.0518537 1.1361257 -0.73256314 4278782215
5.0268435 1.0981334 -0.7277025 4289112231
5.0334873 1.0672686 -0.7277025 4283717201
5.4739532 1.1257126 -0.79368913 4284833882
5.824131 1.1605998 -0.84583032 4281083681
5.9020367 1.1385319 -0.85658258 4281676069
5.9303021 1.1062909 -0.85982305 4287792498
5.9525523 1.0726922 -0.8621797 4294564550
5.8869138 1.0235952 -0.85128009 4292325790
5.9789243 1.0018554 -0.86424178 4292787111
6.0083933 0.96893436 -0.86777675 4284761393
6.0562534 0.93857092 -0.87411028 4280881415
6.0892911 0.90547138 -0.87823445 4279765260
5.7578936 0.82004869 -0.82756615 4289043867
5.7481165 0.78269875 -0.82535678 4288584848
3.5577271 0.4617748 -0.49571833 4279174400
6.1332369 0.75867856 -0.88176948 4281284946
6.1397414 0.72126263 -0.88206404 4284837752
5.7587123 0.64063025 -0.82432574 4288128144
5.7271233 0.60155666 -0.81902325 4279639848
6.0988259 0.60286373 -0.87411028 4281549148
6.1171832 0.56680232 -0.87631971 4286877336
6.1294141 0.5300259 -0.87764531 4282144867
6.1295938 0.49216849 -0.8772034 4282409847
6.0821934 0.4508104 -0.86969155 4283197317
6.114449 0.41549972 -0.87411028 4282936452
6.1089859 0.37748483 -0.87293196 4288127654
6.1230373 0.34065527 -0.87469947 4289958782
6.1526728 0.3044526 -0.87882364 4288644201
6.1326857 0.26574859 -0.87558323 4290683782
1.787205 0.065630592 -0.22779503 4288575846
1.8014147 0.055095587 -0.22985712 4284368175
1.8383037 0.044959351 -0.23530689 4285880893
1.8177778 0.033285234 -0.23221377 4286144065
1.7249805 0.020939283 -0.21836838 4286340425
1.701339 0.010196005 -0.21483338 4282329120
1.6904895 -0.00024933985 -0.21321318 4281541922
1.6934233 -0.010638572 -0.21365505 4281543981
1.6883811 -0.020971032 -0.21291858 4281543716
1.6951432 -0.031454016 -0.21394962 4282135342
1.6830525 -0.04156981 -0.21218213 4281544232
1.6797999 -0.051806644 -0.21174026 4281608998
6.0666628 -0.25858992 -0.86571467 4291216306
5.6747303 -0.27685192 -0.80753452 4292463552
5.9830365 -0.32863933 -0.85378408 4288581512
5.7676578 -0.35235986 -0.82196909 4289638052
5.956841 -0.4005799 -0.85054368 4293258718
6.0292416 -0.44261187 -0.86173779 4292075726
6.0214825 -0.47920689 -0.86100137 4290233780
5.9642272 -0.51150721 -0.85290033 4289178789
5.966886 -0.5486356 -0.85378408 4293982710
6.0372357 -0.5924682 -0.86483091 4289971388
6.062016 -0.63247186 -0.86910242 4291748567
6.06392 -0.67030668 -0.86998612 4294507504
5.9938693 -0.6998291 -0.86011761 4282662967
4.7367868 -0.58278441 -0.67217362 4282265639
4.6919212 -0.60652226 -0.66598737 4282529585
4.6930127 -0.6359629 -0.66672379 4288385677
4.6371174 -0.65740132 -0.65891737 4288978074
4.6173406 -0.6835283 -0.65656072 4279636235
4.5612488 -0.70386523 -0.64875424 4282068266
4.545125 -0.72996014 -0.64698672 4281673508
4.5347066 -0.7568593 -0.64610296 4281608998
4.5241294 -0.78365803 -0.64521927 4284173645
4.5095005 -0.80965739 -0.64374632 4282462248
4.6940813 -0.87251204 -0.67246819 4279505176
5.8173537 -1.1179839 -0.84362096 4279044110
5.8055339 -1.1526953 -0.84288448 4291674038
5.7692819 -1.1823442 -0.83846575 4282131993
4.827064 -1.020344 -0.69618213 4293384913
5.7920313 -1.2612532 -0.84421015 4290028443
5.7368898 -1.2861757 -0.83699286 4290620578
5.7770815 -1.3324575 -0.84435743 4291278241
5.7437735 -1.3619517 -0.84052783 4290751897
5.751646 -1.4011457 -0.84303176 4292394669
5.755415 -1.4395281 -0.84494656 4292855222
5.7349768 -1.4718673 -0.84317911 4286872687
3.8554649 1.1181955 -0.6085785 4292791245
3.8613036 1.0942487 -0.6084193 4283843642
4.093451 1.1329257 -0.64614785 4284963661
4.1632304 1.1247762 -0.65665448 4283056953
4.1500053 1.0939274 -0.65331143 4286611582
4.1757636 1.0733566 -0.65649527 4286151295
4.8424845 1.0874819 -0.76156199 4282398001
4.9638505 1.0827776 -0.7805059 4285619812
5.0032406 1.0592495 -0.78591841 4287329656
5.7146549 1.1732199 -0.90196937 4294301894
5.7691922 1.1475677 -0.90976977 4293642157
5.7276521 1.1028173 -0.90181017 4292720277
5.7537227 1.0712652 -0.90499401 4294563251
5.7281227 1.0301763 -0.8997407 4292659112
5.7489266 0.99754059 -0.90212858 4294964189
5.7539659 0.96208429 -0.90196937 4294965990
5.7402663 0.92362517 -0.89878553 4294964956
5.7282629 0.88567203 -0.89592004 4294571223
5.7130823 0.84746665 -0.89257705 4292991677
5.6047907 0.79629511 -0.87411076 4288252272
5.6115279 0.76215529 -0.87442917 4282791213
5.7394614 0.74368548 -0.89448732 4285224026
5.7301993 0.7067638 -0.89225864 4282725685
5.7187395 0.66975433 -0.88971156 4290754215
5.6481671 0.626387 -0.87761301 4289044621
5.6587777 0.5924378 -0.87872732 4282004265
5.729116 0.56428087 -0.88955241 4285556067
5.7432842 0.53011447 -0.89130348 4281738274
5.7454453 0.49477968 -0.89114434 4293186757
5.7286906 0.45794496 -0.88796049 4294698455
5.7323771 0.42285833 -0.88811964 4294963420
5.7309241 0.38741106 -0.88748288 4294699734
5.7184129 0.35133237 -0.885095 4291871397
5.7470756 0.31770778 -0.88939321 4284036383
5.752861 0.2826319 -0.89002997 4282784522
5.7436371 0.24686211 -0.88827884 4283247655
1.7878673 0.066123068 -0.24975972 4286678416
1.7783715 0.054849487 -0.2481678 4280881928
1.8536828 0.045773011 -0.26026636 4285157431
1.8006264 0.033420369 -0.25167 4285552441
1.7109648 0.021274712 -0.23718356 4285815363
1.6873695 0.010632197 -0.23336296 4282329374
1.6883904 0.00027842796 -0.23352213 4281410338
1.6794752 -0.010026245 -0.23208942 4281346602
1.6774076 -0.020306762 -0.23177104 4281544234
1.6723162 -0.030507578 -0.23097508 4282266413
1.6651888 -0.040598091 -0.22986071 4281609509
1.6422124 -0.050116725 -0.22619931 4281411878
5.7209525 -0.24586034 -0.88461745 4294365104
5.7084894 -0.28042525 -0.88286632 4293246108
5.6928611 -0.31468278 -0.88063765 4293774255
5.6878667 -0.34942582 -0.88016003 4289828485
5.6806912 -0.38398609 -0.87936407 4283514926
5.6831512 -0.41919839 -0.88016003 4293381045
5.6952329 -0.4552426 -0.88254791 4292784532
5.7002015 -0.49085748 -0.88382149 4293835161
5.6960998 -0.52573323 -0.88366228 4292190851
5.6799941 -0.5594151 -0.88159281 4292651657
5.6764541 -0.59425634 -0.88159281 4291335795
5.6854572 -0.63049072 -0.88366228 4286669382
5.6824622 -0.665479 -0.88382149 4281409552
5.4597726 -0.67336965 -0.84832168 4282332206
4.7378917 -0.61382258 -0.7316339 4282331692
4.7134929 -0.6400907 -0.72829092 4282593581
4.6811304 -0.66497111 -0.7236743 4282264616
4.6505957 -0.68976861 -0.71937615 4281279520
4.6121283 -0.71300918 -0.71380442 4281674278
4.5959702 -0.73941243 -0.71189409 4282069034
4.5689511 -0.76385283 -0.7082327 4282265645
4.5554237 -0.79035348 -0.70679998 4282725939
4.5504889 -0.81829005 -0.70679998 4283382830
4.7035828 -0.87566131 -0.73274827 4284105531
5.6433144 -1.0865585 -0.88796049 4283708705
5.6326685 -1.120394 -0.88732368 4291470982
5.6440616 -1.1587079 -0.89034837 4291798662
5.6252561 -1.1908629 -0.88843805 4292456093
5.6024103 -1.2219892 -0.88589096 4281077002
5.0544262 -1.1349581 -0.79658425 4294237905
5.6023831 -1.2942039 -0.88843805 4290286977
5.6020207 -1.3303803 -0.88971156 4288245852
5.5937524 -1.3647288 -0.88971156 4288312674
5.5977225 -1.4021449 -0.89178109 4289234290
5.5804086 -1.4342532 -0.89034837 4288513136
5.5724573 -1.4687185 -0.89050752 4288716701
3.6576021 1.0853157 -0.62283355 4289630880
3.6575692 1.0609293 -0.62163728 4283319362
4.0858116 1.1581552 -0.69768661 4285099624
4.086194 1.1312213 -0.69649035 4278849288
4.1158843 1.112303 -0.70059186 4287665550
4.1302533 1.0890393 -0.70195907 4285560434
4.7433219 1.1271228 -0.80671918 4290687917
4.7319102 1.0937765 -0.8034721 4283843902
5.0461383 1.1339164 -0.8581593 4278845696
5.0462627 1.1014603 -0.85696298 4286542962
5.0654564 1.0731338 -0.85918468 4288380538
5.5988827 1.1504158 -0.95249462 4292657332
5.630959 1.121047 -0.95693797 4286539862
5.6106434 1.0812489 -0.95215285 4291144081
5.6152349 1.0464408 -0.95181108 4292459166
5.6186409 1.0114425 -0.95129836 4293708205
5.6373606 0.97914261 -0.95352 4294168754
5.6393757 0.94388258 -0.95283645 4294234796
5.6294975 0.90675217 -0.95010209 4294301094
5.6106138 0.86842042 -0.94582963 4294435774
5.6041417 0.83223879 -0.94377887 4281014800
5.6062164 0.79741991 -0.94326621 4287329655
3.5549664 0.48298576 -0.58335626 4282658337
5.6028781 0.72691238 -0.94104451 4283248933
5.601366 0.69179416 -0.94001913 4294963170
5.6103978 0.65798664 -0.94087362 4280355332
5.6084542 0.62289572 -0.93984824 4281935132
5.6121702 0.58847117 -0.93984824 4281080082
5.6097927 0.5534429 -0.93882287 4285354567
5.590518 0.51692027 -0.93489224 4294960853
5.618125 0.48473021 -0.93916464 4294234807
5.6308146 0.45103765 -0.94087362 4294956212
5.6148071 0.41509503 -0.93762654 4286798658
5.5907063 0.37883142 -0.93301237 4287390032
5.5860419 0.34409487 -0.93181604 4285020715
5.6037884 0.31068903 -0.9345504 4284232226
5.5977168 0.2759093 -0.93318325 4283379229
5.5993047 0.24155717 -0.93318325 4283841322
1.856218 0.067888521 -0.28326038 4286868291
1.8250856 0.055518862 -0.27779168 4281275393
1.8549414 0.045055669 -0.2829186 4282197021
1.8473018 0.033525109 -0.28155142 4282591528
1.7430406 0.020869263 -0.26343629 4286077519
1.7027398 0.0099109216 -0.25642949 4282526753
1.6889746 -0.00054219668 -0.25403693 4281344545
1.6899248 -0.010911221 -0.25420782 4281215018
1.6908112 -0.021291923 -0.25437874 4281542954
1.6857232 -0.031577293 -0.25352424 4282068269
1.6854976 -0.041920099 -0.25352424 4281675051
1.6783149 -0.052052319 -0.25232795 4281477925
5.5954447 -0.23957106 -0.93249965 4293183926
5.5820599 -0.27332377 -0.93044889 4292983726
5.590116 -0.3081097 -0.93215787 4286276951
5.5900869 -0.34252432 -0.93249965 4292197809
5.5819821 -0.37642148 -0.93147427 4283508255
5.5805497 -0.41073692 -0.93164515 4283310874
5.5847998 -0.44551778 -0.93284142 4291471251
5.5741072 -0.47910371 -0.93147427 4291603603
5.5798931 -0.51410848 -0.93301237 4291274892
5.5805559 -0.54872125 -0.93369591 4291140746
5.5800242 -0.58325928 -0.93420863 4282786842
4.9740543 -0.55092061 -0.82910675 4283445032
4.8688016 -0.56954902 -0.81133342 4282327840
4.8476129 -0.59724826 -0.80825722 4294634731
4.8096561 -0.62256283 -0.80227584 4282069034
4.7032261 -0.63817751 -0.78433162 4282529071
4.6758089 -0.66370654 -0.78023005 4283317558
4.6394844 -0.68762529 -0.77459043 4283513394
4.6264138 -0.714728 -0.77305239 4282922540
4.6015115 -0.73982227 -0.76946354 4282002725
4.5900822 -0.76690787 -0.76826727 4282593324
4.5862613 -0.79522574 -0.76843816 4282131490
4.5919633 -0.825266 -0.77031803 4281671457
4.7030582 -0.87502474 -0.79082572 4284368970
5.6119699 -1.0795679 -0.95232373 4281803556
5.6033077 -1.1135985 -0.95198196 4282394149
5.6108479 -1.1509255 -0.95454544 4282130714
5.6085005 -1.1863499 -0.95539987 4282328093
5.6088171 -1.2224176 -0.95676708 4281277212
5.5983267 -1.2561631 -0.95625436 4281015319
5.4877839 -1.2667985 -0.93796837 4280752406
5.5834489 -1.3249959 -0.95642531 4293709258
5.52352 -1.3466384 -0.94719684 4293572007
5.431994 -1.3597074 -0.93232876 4291336324
5.4454989 -1.3986448 -0.93625939 4290156408
5.437767 -1.4322822 -0.93643028 4290023552
5.4203148 -1.4633112 -0.93489224 4290553245
5.4007878 -1.4936554 -0.93301237 4287465088
4.0376816 -1.1436918 -0.68897086 4286741628
4.0296416 -1.1681709 -0.68879998 4285159761
3.9950016 -1.1847579 -0.68384391 4289171844
4.0253754 -1.2206752 -0.69067985 4279833100
4.0375748 -1.2514719 -0.69426864 4290493112
4.0260625 -1.2750334 -0.6935851 4288457120
3.5335307 1.0727092 -0.6486252 4287594880
3.5419312 1.0515671 -0.64899141 4285424739
4.1220655 1.1688926 -0.75884748 4286016876
4.1206326 1.1412175 -0.75719965 4281936169
4.1398954 1.1192466 -0.7595799 4284767589
4.1476359 1.0940742 -0.75976294 4287205779
4.0581059 1.043877 -0.74127054 4284178274
4.5681949 1.1154553 -0.83666223 4283189570
5.3917766 1.2814814 -0.99302405 4289040784
5.1255951 1.1850582 -0.94065934 4282066729
5.0742598 1.1404402 -0.92949063 4281739303
5.0946083 1.1122183 -0.93205398 4289568141
5.1032605 1.0813448 -0.93242013 4281669899
5.5710711 1.1447625 -1.0201221 4281800983
5.5731697 1.109598 -1.0192065 4281277204
5.5808382 1.0755669 -1.0193896 4280882193
5.5940981 1.0425637 -1.0206712 4281013011
5.649735 1.0170991 -1.030009 4281013527
5.6587753 0.98291844 -1.0305583 4281212960
5.7093019 0.95564097 -1.0389806 4281081641
5.7150583 0.92059141 -1.0389806 4280492075
5.7128272 0.88430458 -1.0375159 4279176723
5.7025867 0.84692496 -1.0345864 4287795866
3.5410953 0.50386989 -0.62702018 4286144863
5.7018347 0.77542514 -1.0325724 4281347131
5.7074604 0.74055117 -1.0327555 4280821048
5.7099452 0.70527607 -1.0323893 4280558903
5.7083068 0.66954046 -1.0312907 4279506215
5.7025371 0.63341767 -1.0294597 4279834662
5.708271 0.59862059 -1.0298259 4288583583
5.6991181 0.56232995 -1.0274458 4281216058
5.7014828 0.52725977 -1.0272627 4280953913
5.684042 0.49049267 -1.0234177 4280755253
5.6938043 0.4561559 -1.0246993 4281146915
5.6876721 0.42055896 -1.0230515 4286012742
5.6950498 0.38598418 -1.0239669 4283773737
5.6973114 0.35103273 -1.0239669 4280881423
1.8888216 0.10500658 -0.31319794 4285884763
1.884521 0.09317328 -0.31228247 4285154351
1.8870214 0.081692971 -0.31264865 4281667072
1.8658739 0.069314457 -0.3086206 4283379239
1.8436636 0.057168301 -0.30440944 4285023025
1.8272721 0.045442745 -0.30129686 4287788124
1.7980286 0.033683881 -0.29580405 4291737244
1.767728 0.022273436 -0.29012814 4283711025
1.7216266 0.011137892 -0.28152275 4282066977
1.7108486 0.00057279965 -0.27950874 4281673762
1.7059046 -0.0098951571 -0.27859327 4281279780
1.6999135 -0.020290462 -0.2774947 4281806123
1.6977912 -0.030684575 -0.27712852 4282134059
1.7034677 -0.041245565 -0.27822706 4281805096
1.6972867 -0.051516775 -0.27712852 4281279780
1.7165874 -0.062651724 -0.28079039 4281215527
5.6960182 -0.24379386 -1.0226853 4280492083
5.6718307 -0.27763239 -1.0184741 4283914851
5.6503892 -0.31134576 -1.0148122 4282532166
5.6699595 -0.34733394 -1.0188403 4282662462
5.6530089 -0.38112465 -1.016094 4293912295
5.6662502 -0.41695908 -1.0190234 4284571742
5.6704459 -0.45226634 -1.020305 4284112731
5.6714816 -0.48738793 -1.0210375 4284572514
5.679153 -0.52317113 -1.0230515 4283453007
5.6797495 -0.55839282 -1.0237839 4282071091
5.6693716 -0.59251684 -1.0225022 4285359712
5.6763778 -0.62848306 -1.0245162 4285887861
5.6675324 -0.66272968 -1.0236008 4280692796
5.6692133 -0.69821388 -1.0246993 4286874764
4.7659101 -0.6166119 -0.85588706 4280225037
4.7620368 -0.64584339 -0.85588706 4283971892
4.7229447 -0.67007625 -0.84929568 4282000927
4.695405 -0.6955837 -0.84490144 4280160012
4.6910486 -0.72438103 -0.84490144 4280028683
4.6787505 -0.75190258 -0.84343672 4280358678
4.6527162 -0.77703226 -0.83940864 4280490525
4.6275196 -0.80203897 -0.83556366 4280556320
4.5838075 -0.82346147 -0.82823992 4279700500
4.5612712 -0.84833455 -0.82494426 4282990146
4.5308805 -0.87147605 -0.82018381 4284174414
4.5129128 -0.89676869 -0.81780362 4284437584
5.6764464 -1.1643289 -1.0400792 4285095512
5.6345706 -1.1918108 -1.0334878 4284635474
5.5426245 -1.207934 -1.0173756 4282398001
5.5178423 -1.2380449 -1.0140799 4291345847
5.4833212 -1.2656856 -1.0089533 4291739075
5.1511922 -1.2223376 -0.94688451 4279437829
5.2562976 -1.2814053 -0.96848959 4280555532
5.3408413 -1.3367938 -0.98624963 4292857532
5.1630511 -1.3259978 -0.953659 4288515707
5.012219 -1.3200847 -0.92619497 4285946187
4.9840937 -1.3454324 -0.92234999 4286604376
4.0831871 -1.12909 -0.7498759 4284700491
4.0307798 -1.1412629 -0.74108744 4285027663
4.0218129 -1.1654265 -0.74072123 4286934369
4.0362644 -1.1965103 -0.74493241 4281410590
4.0194392 -1.2184011 -0.74310148 4285297262
3.438127 1.0906861 -0.67620325 4293054670
3.4363246 1.066949 -0.67445207 4285225555
4.0911484 1.1883821 -0.80579138 4285163360
4.0625086 1.1530695 -0.79839742 4281673247
4.1290531 1.1446452 -0.81065577 4280489236
4.158721 1.1254442 -0.81532562 4283517003
4.1608067 1.0986522 -0.81435275 4285690731
4.1788673 1.0760396 -0.81668764 4283452229
4.4403448 1.1144359 -0.86883426 4283581505
5.2864881 1.2926006 -1.0402564 4283448118
5.1969934 1.2369514 -1.0204096 4282066720
5.285708 1.2238649 -1.0369486 4282527016
5.0816431 1.1437612 -0.99394703 4282396456
5.1690545 1.1301764 -1.0102916 4283646774
5.4186382 1.1500108 -1.0595194 4282131995
5.4351997 1.1187205 -1.0614653 4282197023
5.4486952 1.0866941 -1.0628272 4282788391
5.4668169 1.0554749 -1.0651622 4282722598
5.477047 1.0226322 -1.0659405 4284435274
5.6588988 1.020732 -1.1013534 4281148973
5.6718197 0.98716909 -1.1027155 4281349451
5.6990514 0.95592302 -1.1069962 4280168265
5.7115879 0.92203194 -1.1083583 4280758349
5.7190766 0.88727009 -1.1087474 4291018971
5.7088904 0.84984773 -1.1056341 4278850340
5.7256498 0.81646669 -1.107969 4279840329
5.719861 0.77985966 -1.1058288 4279841101
5.7196755 0.74411482 -1.1048559 4279841101
5.7202396 0.70852244 -1.1040776 4279775821
5.7196083 0.67283636 -1.1031046 4280234828
5.7177806 0.63707596 -1.1019372 4286611343
5.71768 0.601569 -1.1011589 4280099381
5.7193108 0.56628096 -1.1007698 4279775821
5.7080283 0.52981442 -1.097851 4279972683
5.7170348 0.49528983 -1.0990186 4278192671
5.7121449 0.45957053 -1.0974619 4285758334
5.6962709 0.4231284 -1.093765 4285754206
5.6899538 0.38756704 -1.0920137 4281144587
5.6873293 0.35234258 -1.0910408 4282527528
1.8277959 0.10118372 -0.32382476 4294563523
1.8318398 0.0788747 -0.3244085 4282129939
1.8166063 0.067044303 -0.32129526 4283380268
1.8012968 0.055403844 -0.31818202 4283446574
1.76238 0.043359123 -0.31039897 4280749061
1.7949761 0.033163663 -0.31682 4279894272
1.7431633 0.021473885 -0.30650744 4283053615
1.7246258 0.010649861 -0.30281046 4281871141
1.6981748 4.8488029e-05 -0.29755691 4281411106
1.6932386 -0.010344755 -0.29658401 4281608485
1.6833352 -0.020620769 -0.29463825 4281608485
1.6792541 -0.030879738 -0.29385993 4281674789
1.6584402 -0.040692173 -0.28977382 4281477925
1.6660029 -0.051102463 -0.29133046 4281018152
5.7019229 -0.24211924 -1.092792 4280822586
5.6944513 -0.27681649 -1.0916246 4280164907
5.6466122 -0.30924031 -1.0824795 4285164397
5.6730018 -0.34560534 -1.0881222 4285360236
5.6580515 -0.37955683 -1.0855927 4284572003
5.6536593 -0.41412395 -1.0852035 4285493103
5.6793694 -0.45105255 -1.0908463 4285887861
5.671608 -0.48547477 -1.0898734 4286019447
5.6685219 -0.52026594 -1.0898734 4286085753
5.6681523 -0.5553239 -1.0904572 4286085499
5.6763449 -0.59130973 -1.092792 4286150772
5.6745605 -0.62634283 -1.0931813 4288388771
5.676456 -0.66182977 -1.0943487 4281153865
5.6839714 -0.69807988 -1.0966836 4281613646
4.7407851 -0.61198813 -0.90891707 4286412667
4.7068062 -0.6369949 -0.90288514 4281409561
4.701838 -0.66572607 -0.90269059 4280490263
4.663702 -0.68955046 -0.8958804 4280228901
5.6831508 -0.87568641 -1.1013534 4281545280
4.6548891 -0.74672937 -0.8958804 4280162078
4.6589274 -0.77672678 -0.89763159 4280951076
4.5545177 -0.78809792 -0.87759018 4286609015
4.49263 -0.80582649 -0.86611015 4284041545
4.4528813 -0.82693911 -0.85910541 4283844671
4.4901094 -0.86237532 -0.86766678 4282922799
4.4982042 -0.89257926 -0.87039083 4280884244
4.4772673 -0.91701782 -0.86727762 4280820511
4.4677172 -0.9436627 -0.8664993 4281478441
4.4359632 -0.965433 -0.86124575 4281742126
4.435699 -0.99391872 -0.86241317 4281282089
4.4228263 -1.0195762 -0.86105114 4279700488
4.3916693 -1.0408202 -0.85599214 4280225805
4.3747163 -1.0651975 -0.8538518 4287199861
4.325273 -1.0813259 -0.84509587 4290555302
5.1243153 -1.314321 -1.0100969 4293119162
5.2423277 -1.378897 -1.0359757 4292986298
5.222403 -1.4079757 -1.0336407 4293446595
5.2477045 -1.4493868 -1.0406455 4281472010
4.0965638 -1.1588141 -0.80520761 4284104242
4.087492 -1.1833833 -0.80481845 4283514677
4.0857973 -1.210111 -0.80598593 4279702282
3.3254485 1.0768005 -0.69772947 4292005830
3.3319931 1.0563755 -0.69772947 4282332459
4.1227908 1.1964767 -0.86592507 4286149495
4.1140509 1.1666207 -0.86241668 4285293412
4.123961 1.1421387 -0.8630358 4282398260
4.156395 1.1237057 -0.86860794 4286675059
4.1669965 1.0991793 -0.8694334 4286149745
4.1727147 1.0733467 -0.86922705 4286149742
5.2488842 1.3157837 -1.1018116 4282200620
5.2188363 1.2742714 -1.0935566 4282263846
5.2427402 1.2460703 -1.097065 4283446572
5.2245469 1.2079289 -1.0914929 4281934362
5.0838861 1.1426032 -1.0595047 4282856232
5.2743478 1.1514438 -1.0991287 4283446823
5.2803569 1.1188565 -1.0989224 4283709475
5.299582 1.0889953 -1.1016053 4286011210
5.324398 1.0600863 -1.1055264 4288579194
5.4960608 1.059234 -1.1410229 4280754469
5.5630574 1.0367808 -1.1540245 4280099904
5.5953155 1.0073061 -1.1595967 4279642952
5.6158519 0.97546571 -1.1626923 4280235588
5.6419973 0.94437993 -1.1670262 4279707716
5.6650743 0.9125433 -1.1707408 4289575369
5.6792703 0.87911242 -1.1725982 4280101686
5.7426291 0.85286921 -1.1849808 4279907667
5.7390356 0.8163774 -1.1831234 4279907154
5.7400584 0.78062075 -1.1822978 4279775831
5.7398887 0.74475652 -1.181266 4279512146
5.7394943 0.70892388 -1.1802341 4279577676
5.7427649 0.67357969 -1.1800277 4282207581
5.7390099 0.63746643 -1.1783768 4279707447
5.7418394 0.60213858 -1.1781704 4279906900
5.7464004 0.56699193 -1.1783768 4279448663
5.7487965 0.53163201 -1.1781704 4280169043
5.7607241 0.49710456 -1.1800277 4278981673
5.7236767 0.45854706 -1.1715664 4286871937
5.7107692 0.42226517 -1.1682644 4281668888
5.662488 0.38377953 -1.1575329 4283908673
1.8568753 0.11466987 -0.35287684 4283312668
1.8800143 0.10451876 -0.35762346 4282524700
1.8493472 0.09144146 -0.35101947 4282985251
1.8244568 0.078997225 -0.34565371 4282984732
1.8239293 0.06776496 -0.34544736 4284236080
1.8203987 0.056451786 -0.34462184 4283379742
1.8011473 0.044798572 -0.34049433 4283773470
1.8170412 0.034035973 -0.34379634 4284760104
1.7565551 0.022135099 -0.3310011 4283643430
1.7184981 0.011118354 -0.32295248 4282987050
1.7263619 0.00057449186 -0.32460347 4281278750
1.7165482 -0.0099593056 -0.32253972 4281147681
1.7076492 -0.020384554 -0.32068235 4281674280
1.7026005 -0.030772591 -0.31965047 4281674280
1.7033578 -0.041242875 -0.31985685 4281543205
1.7099189 -0.051903062 -0.32130149 4281017637
5.7387185 -0.24562433 -1.1719792 4281412910
5.7116928 -0.27958632 -1.1666133 4282729797
5.6678596 -0.31230959 -1.1577393 4285428337
5.6863461 -0.34833884 -1.1620731 4284242777
5.6216216 -0.37900639 -1.1488651 4284636765
5.6182141 -0.41342098 -1.1486588 4285822068
5.6818967 -0.4531804 -1.1626923 4286216826
5.6780343 -0.48795152 -1.1624858 4286019447
5.6885738 -0.52403963 -1.1653751 4286085753
5.6803832 -0.55845517 -1.1643432 4285756786
5.6836615 -0.59401131 -1.1657879 4286742141
5.6779647 -0.62865889 -1.1653751 4288914088
5.6788597 -0.66405493 -1.166407 4279375908
5.7193499 -0.70439202 -1.1759002 4280562755
5.7158904 -0.73959762 -1.1761067 4280234309
5.7160926 -0.77531374 -1.1771386 4280429889
5.7015405 -0.80899715 -1.1750748 4283979363
4.7005019 -0.69633919 -0.96271491 4282401359
5.7259951 -0.8842814 -1.1825043 4284438107
5.7349524 -0.92172879 -1.1855999 4288580744
4.8123507 -0.80370557 -0.98954368 4281212182
4.768765 -0.82653141 -0.98128867 4282199076
4.7713079 -0.85716122 -0.98293972 4282462765
4.7900076 -0.89089608 -0.98809898 4280952098
4.7806077 -0.91953069 -0.98727357 4281478188
4.8219004 -0.95819515 -0.99738586 4282463796
4.8092208 -0.98638701 -0.99594128 4282923314
4.8662586 -1.0292454 -1.009562 4281937702
4.933465 -1.0751331 -1.0254529 4281741093
4.988832 -1.1193124 -1.0388672 4281610277
4.4670405 -1.0310296 -0.92742479 4281279518
4.3311553 -1.027686 -0.8993578 4279766279
4.2886448 -1.045433 -0.89151555 4281015578
4.2707586 -1.0688763 -0.88903904 4281672481
4.2565384 -1.0931133 -0.88738805 4281869088
4.2374506 -1.1159697 -0.88470519 4282525221
4.2163534 -1.138123 -0.88160956 4284959047
4.1781702 -1.155364 -0.87479919 4282065435
4.1625295 -1.1785792 -0.87294179 4282788640
4.1411223 -1.2000115 -0.86984617 4282330663
5.1608963 -1.5300084 -1.0958267 4288061589
3.2158227 1.0843896 -0.71826649 4291742411
3.2446537 1.0719929 -0.72349787 4289636757
3.2437429 1.0496575 -0.72175407 4284173893
4.1214232 1.1682605 -0.91705781 4284307289
4.1153474 1.1393007 -0.91400617 4283254599
4.1580601 1.1237131 -0.92228913 4284109138
4.1733689 1.1004205 -0.9242509 4281939505
4.1790977 1.0745491 -0.92403293 4281347104
5.1274977 1.2851877 -1.140916 4281409558
5.1428714 1.2555552 -1.1426598 4286014557
5.1628213 1.2269115 -1.1454934 4283514675
5.1017933 1.1793683 -1.1297994 4283052330
5.1146464 1.1493272 -1.1311072 4284038449
5.1416245 1.1222978 -1.1356846 4284759855
5.1713271 1.0955878 -1.140916 4284497458
5.2066307 1.0697353 -1.1474551 4282986547
5.4121799 1.0774447 -1.1927935 4281215544
5.4455214 1.0493926 -1.1988968 4280495945
5.4796801 1.0211505 -1.205218 4279643468
5.5252223 0.9946059 -1.2141548 4280169296
5.5485287 0.96369481 -1.2180784 4280103244
5.5812879 0.93414807 -1.2241817 4286812061
5.6013675 0.9022153 -1.2274512 4280494650
5.6231933 0.87037015 -1.2311567 4279840596
5.6622148 0.84087509 -1.2387857 4279645524
5.6788621 0.80776823 -1.2414014 4279907666
5.7078876 0.77620077 -1.2468508 4279908185
5.7222204 0.74242085 -1.2490305 4279579479
5.7499142 0.71017182 -1.2542619 4282274146
5.7493167 0.67430824 -1.253172 4282534235
5.757226 0.63945007 -1.2540439 4279839300
5.7474527 0.60268474 -1.2509923 4279513686
5.7762942 0.56990421 -1.2566596 4279906641
5.7437258 0.53111863 -1.2485946 4279774790
5.7595172 0.496959 -1.2514282 4279181621
5.7303548 0.45903173 -1.2442352 4280888369
5.6999722 0.42140895 -1.236824 4286340963
1.8387764 0.1238111 -0.37190756 4285222197
5.7115326 0.35185125 -1.2383499 4281082664
5.6999416 0.3160401 -1.2352983 4285690490
1.8709613 0.091439992 -0.37866473 4283709746
1.870512 0.079916 -0.37844676 4283051554
1.8680415 0.068328395 -0.37779284 4283709482
1.8479403 0.056228742 -0.37321541 4283380258
1.8628855 0.045253631 -0.37648499 4285551928
1.8338544 0.033272546 -0.36994579 4286473283
1.7286294 0.020687057 -0.34640473 4285946955
1.6896864 0.009825984 -0.33768582 4281277974
1.6945947 -0.00054011232 -0.33877566 4281213211
1.6994393 -0.010966072 -0.33986554 4281411106
1.6973881 -0.0213702 -0.33942959 4281411106
1.6913702 -0.031679161 -0.33812177 4281542690
1.6930954 -0.042103793 -0.33855769 4281083167
1.6986582 -0.052669093 -0.33986554 4281147936
1.7070807 -0.063410915 -0.3418273 4281147685
5.7385745 -0.24566929 -1.2431452 4280622881
5.6862702 -0.27840453 -1.2318107 4281544242
5.6961489 -0.3139317 -1.2344264 4285361519
5.6911926 -0.34869823 -1.2337724 4284243036
5.6441531 -0.38060093 -1.2237457 4285558637
5.6514449 -0.41594002 -1.2259254 4285164136
5.6662984 -0.45200208 -1.2298489 4285756275
5.6925898 -0.48926252 -1.2363881 4285887609
5.6875367 -0.52400374 -1.2359521 4285953403
5.6861572 -0.55908251 -1.2363881 4285822330
5.6903849 -0.59477162 -1.2381319 4285361008
5.6846886 -0.62946159 -1.2376959 4288782510
5.6991372 -0.66648042 -1.2418374 4280165945
5.7230315 -0.70489126 -1.2481587 4279641404
5.7253737 -0.74086916 -1.2496845 4280037702
5.7313585 -0.7774263 -1.2520821 4286217857
4.7379532 -0.67251182 -1.0290959 4285295472
4.7134628 -0.69857103 -1.0245185 4281678398
5.7189713 -0.88323647 -1.2527361 4281940558
5.712481 -0.91815615 -1.2525181 4287069055
4.8095479 -0.80351943 -1.0493673 4280554249
4.790103 -0.83051771 -1.0460978 4282527016
4.7820344 -0.85937637 -1.0454439 4282461995
4.7766719 -0.88870227 -1.0454439 4281281838
5.5848279 -1.0743525 -1.2305028 4280299583
5.5532417 -1.1036588 -1.2248355 4280299330
5.5224628 -1.1328144 -1.2193862 4280892231
5.4886718 -1.1610284 -1.2132829 4280558117
4.7462096 -1.0345999 -1.0452259 4282331692
4.7635798 -1.0690396 -1.0506752 4283185720
4.8111377 -1.1107494 -1.0630996 4283056704
5.31988 -1.2625055 -1.181459 4284305733
5.2949648 -1.2909665 -1.1775354 4292857271
5.0502458 -1.2642349 -1.1230422 4292391853
4.9223371 -1.2643898 -1.0953597 4288577405
4.7615876 -1.2543299 -1.060048 4281868058
4.7613401 -1.2855563 -1.0617918 4281540121
4.3065305 -1.1912705 -0.95825469 4281277721
4.1742411 -1.182332 -0.92926431 4281278489
4.7603064 -1.3797661 -1.0672411 4279173120
4.8125744 -1.4269682 -1.0814093 4293185216
4.9830627 -1.5107987 -1.1232601 4288249964
4.9876838 -1.5456761 -1.1265298 4287268724
4.9799666 -1.5768397 -1.1269658 4286090881
3.1101003 1.0494329 -0.73420131 4284042549
3.1081638 1.0275812 -0.73213542 4282334263
4.0898538 1.1869214 -0.96443003 4285623398
4.08395 1.1580878 -0.96121651 4284570192
4.0994205 1.1353446 -0.96328241 4281873461
4.1373167 1.1185496 -0.9708572 4283319622
4.1873941 1.104558 -0.98141605 4284307538
4.1827812 1.0759351 -0.9786616 4282135088
5.0012345 1.2537218 -1.176066 4282265384
5.0116696 1.2237036 -1.1767546 4283185712
5.006773 1.1900047 -1.1737707 4282527529
5.0177741 1.1601381 -1.1746888 4280357648
5.0181508 1.1278342 -1.173082 4282921774
5.0363874 1.0995125 -1.1758364 4282264359
5.2134781 1.1046908 -1.2169242 4281082410
5.3307519 1.0953981 -1.2435508 4280495935
5.3488278 1.0649482 -1.2463053 4280563792
5.3810658 1.0370798 -1.2525029 4280499031
5.4160333 1.0093904 -1.259389 4280631389
5.4479885 0.9807936 -1.2655867 4281616742
5.4797955 0.95184243 -1.2717843 4288655543
5.5104918 0.92237711 -1.2777523 4279903543
5.5391097 0.89226133 -1.2832613 4280499550
5.5800686 0.86376363 -1.2917542 4279844183
5.5997052 0.83165246 -1.2951974 4280039001
5.6191564 0.79933274 -1.2986405 4280104283
5.6422796 0.76732999 -1.3030018 4279842392
5.6632905 0.73482317 -1.306904 4279315779
5.6908755 0.70292193 -1.3124129 4285627269
5.7231154 0.67127633 -1.3190695 4280102727
5.7406693 0.63765073 -1.3222831 4279907154
5.7609301 0.60413921 -1.3261852 4279710036
5.7916489 0.57145363 -1.3326124 4279775055
5.7824473 0.5347417 -1.3296283 4280037710
5.7885284 0.49950203 -1.330317 4281019189
5.7652893 0.46187803 -1.3241194 4283775028
5.7117171 0.42233524 -1.310806 4281343005
1.8687403 0.12691462 -0.40182713 4288054143
1.8714268 0.11556545 -0.4022862 4283252279
1.8711288 0.10402659 -0.40205666 4282923314
1.8746482 0.09268719 -0.40274528 4281934883
1.8771265 0.081266619 -0.40320435 4280816661
1.8668908 0.069352023 -0.40067941 4281672481
1.8429602 0.057146642 -0.39494091 4282657832
1.8345191 0.045621444 -0.39287505 4285354561
1.809463 0.03389563 -0.38690701 4286472003
1.7074484 0.021527084 -0.36280531 4285551162
1.7367468 0.011232317 -0.36969149 4283184421
1.7280233 0.00057467312 -0.36762565 4281410079
1.7007424 -0.0098640444 -0.36119851 4281410085
1.7084358 -0.02039412 -0.36303484 4281541924
1.6956276 -0.030644983 -0.36005083 4281476381
1.6992997 -0.0411437 -0.36096898 4281541922
1.6922054 -0.051361386 -0.35936219 4281278752
1.7074206 -0.062315091 -0.36303484 4280950817
5.5052247 -0.23561478 -1.2596186 4280886312
5.768095 -0.28235096 -1.3220536 4280886564
5.6865644 -0.31334156 -1.3032312 4280754719
5.6942496 -0.34882355 -1.3055266 4284703587
5.6949158 -0.38395283 -1.3062153 4283980893
5.6458597 -0.41545725 -1.2951974 4281742902
5.6422348 -0.45001429 -1.2949678 4285032550
5.6927013 -0.48921299 -1.3075925 4285164138
5.6866851 -0.52386546 -1.306904 4285427310
5.6862693 -0.55903435 -1.3075925 4285296235
5.6972528 -0.59543258 -1.3110356 4284900964
5.696394 -0.63070065 -1.3117243 4286086269
5.7388186 -0.6710704 -1.3227422 4279838001
5.7471509 -0.70781791 -1.3257262 4280101951
5.7494564 -0.74394321 -1.327333 4279511104
5.7447834 -0.77920717 -1.327333 4281547328
4.7232561 -0.67012048 -1.0851681 4283650386
5.7155328 -0.84679174 -1.3227422 4280560958
5.6717544 -0.8759011 -1.3135606 4280104522
5.6557031 -0.90898627 -1.3110356 4280824896
4.8369069 -0.80780876 -1.1166152 4280621072
4.8098025 -0.83364755 -1.1113358 4281740323
4.8074708 -0.86366075 -1.1120243 4282003754
4.8087792 -0.89438885 -1.1136311 4281085750
5.5314932 -1.0640222 -1.2885407 4280694088
5.4914484 -1.0913005 -1.2805067 4280431169
5.4541392 -1.1187147 -1.2731615 4278521367
5.4300323 -1.148533 -1.2690297 4282336854
5.290699 -1.1530125 -1.2371237 4280298814
5.3367062 -1.1973902 -1.2499779 4279116331
5.314085 -1.2266096 -1.2463053 4294178041
5.2666855 -1.2497522 -1.2366647 4279175944
4.7520819 -1.1584471 -1.1136311 4281741093
4.7382755 -1.1859288 -1.1120243 4283447603
4.8610005 -1.2484006 -1.1437008 4283317037
4.8993673 -1.2903537 -1.1549484 4291737258
4.8537717 -1.3102422 -1.1457667 4281803806
4.8259411 -1.3345505 -1.1409464 4281541411
4.8232808 -1.3657281 -1.1423236 4280817688
4.8568764 -1.4074917 -1.152653 4287789688
4.8621459 -1.441417 -1.156096 4292131250
4.8615928 -1.4737655 -1.1581619 4285616968
4.8515291 -1.5032797 -1.1579324 4285813831
4.8431416 -1.5333138 -1.1581619 4287660144
4.6465774 -1.502497 -1.1117948 4292399038
4.5836663 -1.5132776 -1.0984814 4285553996
4.5816731 -1.5438609 -1.1003177 4285226045
4.5619898 -1.5684627 -1.0977929 4287726422
4.5458508 -1.5941699 -1.096186 4287725652
4.5469813 -1.6259663 -1.0989405 4290225032
4.5424051 -1.6558359 -1.1003177 4291476906
4.5157371 -1.6775742 -1.096186 4294965193
4.4971666 -1.702149 -1.0941201 4288384083
4.5129733 -1.7398665 -1.1007769 4287067971
4.5040245 -1.7682363 -1.101236 4286610778
3.0547235 1.0719343 -0.76287043 4293980390
3.073173 1.0572798 -0.76599997 4283251756
3.106271 1.0474063 -0.77298135 4281146640
3.1227758 1.0316797 -0.77562946 4278715393
4.044271 1.2272331 -1.0081807 4282798159
4.0675416 1.2070934 -1.0122732 4285098594
3.9732747 1.1526091 -0.98603296 4287530877
4.0278926 1.1417204 -0.99831045 4286742908
4.8242459 1.3357624 -1.201492 4286411636
4.8473411 1.3101918 -1.2053437 4284302146
4.8327665 1.274479 -1.199566 4285026885
4.1815915 1.075191 -1.0308099 4283909946
4.896996 1.2273592 -1.2120843 4284366383
4.8978348 1.195676 -1.2103992 4284562987
4.9013023 1.1647024 -1.2094362 4284367404
4.9121389 1.1354818 -1.2103992 4283250977
4.9171195 1.1048942 -1.2099177 4282463018
5.1371555 1.1213213 -1.2640834 4280758335
5.2123008 1.104278 -1.2814164 4280695127
5.2446475 1.0775548 -1.2879163 4280499037
5.2863793 1.0523729 -1.2968235 4280631906
5.3117976 1.0235938 -1.3016382 4280632159
5.3513727 0.99721235 -1.310064 4280565586
5.3841362 0.9691785 -1.3168046 4289771463
5.3938069 0.93678898 -1.3177675 4280432206
5.4415722 0.910734 -1.32836 4280763743
5.4700546 0.88103688 -1.3341376 4280238177
5.4935813 0.85028124 -1.3387116 4280172903
5.5322962 0.8215543 -1.3471373 4280105562
5.5583725 0.79060453 -1.3524336 4280172392
5.5862002 0.7596277 -1.3582113 4279710034
5.6071186 0.72746342 -1.3623037 4287994795
5.6249619 0.69471341 -1.365674 4280889420
5.6532178 0.66301757 -1.3716924 4280366422
5.6784015 0.63067907 -1.3769886 4279972434
5.6811991 0.59572369 -1.376748 4280038480
5.7175875 0.56410009 -1.384933 4280039252
5.7393041 0.53070873 -1.3895069 4280168257
5.7501874 0.4961521 -1.3914329 4282399294
5.7666683 0.46194807 -1.3948032 4281607992
5.8023043 0.42899558 -1.4029882 4279374631
1.8558705 0.124973 -0.4212656 4282194203
1.9244143 0.1177746 -0.43811715 4281804584
5.8043718 0.32185182 -1.4017845 4279506475
5.8130236 0.28656667 -1.4034697 4279045666
5.8175812 0.25101933 -1.4041919 4280359721
1.8355526 0.067119695 -0.41548795 4286611322
1.8107066 0.055072248 -0.4092288 4283581497
1.8381786 0.044637945 -0.41596943 4285355839
1.8102757 0.032829721 -0.40898806 4286668350
1.7289199 0.02069073 -0.38876623 4287458897
1.7173675 0.010006103 -0.38587737 4282921499
1.7057495 -0.00053597515 -0.38298854 4281344537
1.6969789 -0.010951888 -0.38082191 4281411366
1.7085261 -0.021502759 -0.38371077 4281674280
1.7112733 -0.032038186 -0.38443297 4282001444
1.7091038 -0.04249084 -0.38395149 4281410336
1.7136618 -0.05312397 -0.38515517 4281213729
1.7365822 -0.064486556 -0.39093286 4281016608
5.9524565 -0.25478202 -1.4376543 4279575080
5.795671 -0.28373837 -1.3991364 4280032810
5.7724996 -0.31812394 -1.3938402 4281808184
5.7781892 -0.35401058 -1.3957661 4280295454
5.7807508 -0.38978374 -1.3969698 4280360748
5.6775794 -0.41785803 -1.3719332 4281216309
5.6497526 -0.45068565 -1.365674 4280427304
5.7696958 -0.49587369 -1.3962476 4279572762
5.7704101 -0.53162193 -1.3972105 4279967779
5.7689719 -0.56720799 -1.397692 4279968045
5.7624865 -0.60229301 -1.3969698 4279902252
5.7538595 -0.63710648 -1.3957661 4280099381
5.7353806 -0.6707114 -1.3921551 4279968568
5.7186337 -0.70435053 -1.3890254 4279772469
5.7045789 -0.73818254 -1.3866181 4279839553
5.6951327 -0.77251995 -1.3854145 4279840069
5.6633778 -0.80363739 -1.3786738 4286285725
5.6448984 -0.83638334 -1.3753035 4280496193
5.6195154 -0.86789715 -1.3702481 4280496713
5.609293 -0.90159231 -1.3690444 4280758840
4.8243637 -0.80599099 -1.1730851 4280557070
4.8021126 -0.83259714 -1.1687518 4281280031
4.7930923 -0.86136085 -1.1677889 4281740330
4.8144364 -0.89571899 -1.1745294 4281676866
5.4512749 -1.0486892 -1.3367857 4281218627
5.411417 -1.0755029 -1.32836 4279441186
5.3809452 -1.1038156 -1.3223416 4281940810
5.2933531 -1.1197548 -1.3018789 4279247668
5.3243175 -1.1604729 -1.3115084 4280895838
5.2896318 -1.1869636 -1.304527 4281880413
5.2567134 -1.2135086 -1.2980272 4294049022
5.2180028 -1.2383512 -1.2900828 4293588712
5.1716423 -1.2609272 -1.2802126 4291483336
5.1214366 -1.2820393 -1.2693795 4293850873
4.9865565 -1.2808697 -1.2368802 4280163872
4.8049564 -1.2657436 -1.192344 4283317558
4.7558675 -1.2840803 -1.1817515 4283444005
4.7759647 -1.3209932 -1.1889737 4287849053
4.7677693 -1.3502731 -1.1889737 4288904824
4.7677855 -1.381932 -1.1911403 4289565840
4.7089634 -1.3962729 -1.1781405 4294961640
4.6102042 -1.3978441 -1.1547891 4287259745
4.6441894 -1.4393119 -1.1658629 4281800975
4.7130022 -1.4923745 -1.1860847 4284233267
4.6234064 -1.4952995 -1.1651407 4289297010
4.5588412 -1.5053931 -1.1506965 4285285662
4.4888096 -1.512893 -1.1348079 4287787577
4.4638376 -1.5350455 -1.1307155 4288248385
4.4561667 -1.5630481 -1.131197 4288116542
4.4611158 -1.5955875 -1.1350487 4287920705
4.460361 -1.6262528 -1.1374561 4289106519
4.481235 -1.6650769 -1.1456411 4286207516
4.4709339 -1.6925418 -1.1456411 4287654192
4.464993 -1.7216882 -1.1468447 4287324968
4.4778361 -1.75827 -1.1531039 4286672454
4.5048194 -1.8008349 -1.1632148 4286811524
4.0176716 1.4655316 -1.074474 4294505704
4.0438995 1.447045 -1.0792664 4285753426
2.9907629 1.049649 -0.78591341 4281870863
3.0017223 1.0328521 -0.78717458 4284373317
3.1868114 1.0746908 -0.83636105 4279441939
4.0560017 1.3124895 -1.0709426 4285691771
4.0713587 1.2899151 -1.0729605 4285954165
4.0690298 1.2617579 -1.0701859 4283649870
3.8828912 1.152022 -1.0154502 4281673762
3.954015 1.1467675 -1.0328547 4280227345
4.1229758 1.1683762 -1.0767441 4284633936
4.7465353 1.3136123 -1.2434735 4284957760
4.7563744 1.284968 -1.243978 4281271810
