# .PCD v0.7 - Point Cloud Data file format
VERSION 0.7
FIELDS x y z rgb
SIZE 4 4 4 4
TYPE F F F U
COUNT 1 1 1 1
WIDTH 1084
HEIGHT 1
VIEWPOINT 0 0 0 1 0 0 0
POINTS 1084
DATA ascii
3.8197658 0.4007034 0.081577249 4293517791
3.766427 0.37176353 0.080912642 4283452242
3.8044817 0.3519586 0.081339888 4293585644
2.9936438 0.25851378 0.071655631 4283188030
2.9054668 0.23295955 0.070587516 4287597450
2.8500004 0.21092847 0.069911048 4290691261
2.6497164 0.17979252 0.067513719 4294111460
2.342375 0.14455037 0.063846514 4285818467
2.3172596 0.1287373 0.063537948 4282661175
1.8476088 0.091355883 0.057948142 4288650136
1.8051777 0.078166552 0.057437815 4286344300
1.7996278 0.066867225 0.05736661 4285160791
1.7740184 0.055023339 0.057058044 4284108617
1.7683249 0.043989245 0.056986835 4283186749
1.7305706 0.032434624 0.056535855 4281343263
1.7057407 0.021505939 0.056239154 4281276700
1.6968414 0.010983106 0.056132343 4281473562
1.6728785 0.00056865776 0.055847511 4281539355
1.6728506 -0.0096959425 0.055847511 4281473562
1.6667603 -0.019887209 0.055776305 4281605148
1.6636077 -0.030058993 0.055740699 4281735705
1.6633921 -0.040266134 0.055740699 4281801246
1.6970953 -0.051510923 0.056144208 4281738021
1.6597749 -0.060565393 0.055705093 4294704121
31.164135 13.611362 0.012449672 4285296502
31.705563 13.61682 0.012101304 4282795852
33.038631 13.711654 0.011218168 4285624948
4.220367 0.68099087 0.033206522 4286348671
4.1533194 0.6440298 0.033256788 4286546052
3.8765979 0.4074848 0.033469718 4279044100
3.8830059 0.38408571 0.033466924 4278715397
3.75087 0.34774834 0.033561174 4292004300
2.9230566 0.25266024 0.034142718 4294308854
2.8956456 0.23238835 0.034162961 4279245078
2.449326 0.16616383 0.034477122 4294701803
2.3195522 0.14300478 0.034568578 4279897351
2.2874372 0.12692441 0.034591615 4283845447
1.8337376 0.090233609 0.034909267 4294374127
1.8272632 0.078674711 0.034914151 4285293665
1.821716 0.067236193 0.034918342 4284173131
1.8200951 0.055994295 0.034919739 4283384128
1.7574246 0.043233909 0.03496372 4281607717
1.7036666 0.031416904 0.035001419 4281869860
1.6838292 0.020702982 0.035015382 4281473560
1.6739247 0.010302254 0.035022363 4281276953
1.6709563 2.8892304e-05 0.035024457 4281276953
1.6699251 -0.010218488 0.035025157 4281408539
1.6678311 -0.020441661 0.03502655 4281342746
1.663675 -0.030604146 0.035029344 4281604633
1.6674546 -0.040906973 0.03502655 4281866526
1.6941602 -0.051946305 0.0350077 4281671971
1.6518369 -0.060824811 0.035037022 4294704121
4.342206 0.72690594 -0.020480949 4286151035
4.3969316 0.70835549 -0.021139622 4287795345
3.8724234 0.40622196 -0.013907176 4282268985
3.8529513 0.38029498 -0.013623044 4279177234
3.8572032 0.3568306 -0.013648875 4290032820
2.8187139 0.2260153 -0.00013970584 4284702045
2.8369999 0.20996809 -0.00035925955 4294767857
2.3353589 0.14411855 0.0061628539 4280094219
2.3132362 0.12851444 0.0064599011 4283976265
1.8805425 0.092977405 0.012065044 4293846242
1.8431159 0.079801202 0.012555817 4285228894
1.7866144 0.066386499 0.013291977 4285161558
1.7779932 0.055145759 0.013408212 4281411104
1.750309 0.043545011 0.013769835 4280358418
1.7445449 0.032693412 0.013847325 4280621337
1.7087183 0.021542808 0.014312267 4280949787
1.6888205 0.010933013 0.01457057 4281211160
1.6808563 0.00056952797 0.014673891 4281408539
1.6688294 -0.0096717076 0.01482887 4281342746
1.6697385 -0.019923432 0.014815956 4281342746
1.6695849 -0.030168381 0.014815956 4281276951
1.670368 -0.040436625 0.014803041 4281800987
1.6810824 -0.051021237 0.014660975 4281277213
4.447 0.77214056 -0.076885179 4283190096
3.8491123 0.4271279 -0.060776781 4279635468
3.867568 0.40517348 -0.061178867 4292925402
3.7645288 0.37100923 -0.058515076 4280163106
3.8911614 0.35943466 -0.061656337 4284177245
3.8703868 0.33357096 -0.061078344 4290162348
2.8250647 0.2257082 -0.034666616 4294900221
2.7416553 0.20208724 -0.032530557 4285952625
2.3168793 0.14203233 -0.021774877 4279896587
2.2837703 0.12592493 -0.020920452 4283712066
1.8471738 0.090262547 -0.0099134706 4292595914
1.819728 0.077714533 -0.0092098266 4285161559
1.8081827 0.066101439 -0.0089082681 4285819489
1.782575 0.054198463 -0.0082548857 4283910470
1.7818747 0.043234866 -0.0082297549 4281410079
1.7211363 0.031155607 -0.0066968165 4281147167
1.6963052 0.020278366 -0.006068565 4280686615
1.6674073 0.0096810153 -0.0053397939 4281014551
1.6594378 -0.00055315136 -0.0051387511 4281145367
1.6544048 -0.010706444 -0.0050131008 4281538842
1.6553077 -0.020869378 -0.0050382316 4281538842
1.6541488 -0.031007729 -0.0050131008 4281538840
1.657925 -0.041253462 -0.0051136203 4281735194
1.6716299 -0.051849645 -0.0054654442 4281343005
1.7532001 -0.065092459 -0.0075261109 4294901502
4.6004844 0.85745507 -0.13891339 4285493364
4.5722198 0.82319331 -0.13763785 4291611854
3.8322637 0.40201318 -0.10788784 4284440926
3.8127799 0.37633401 -0.1070625 4281677368
3.8578043 0.35688615 -0.10867568 4289703344
2.7173636 0.21790253 -0.065570056 4289177509
2.7206421 0.20137225 -0.065645084 4294967293
2.7108593 0.18393236 -0.065232411 4286937202
2.4625847 0.15194878 -0.055853471 4281145876
2.3567097 0.13092241 -0.051839277 4283777598
2.1398859 0.10574649 -0.043660842 4289567380
1.8319982 0.079322174 -0.032068469 4286212964
1.8244615 0.067784622 -0.031768344 4285752668
1.802869 0.055911895 -0.030942999 4281871130
1.7672144 0.04396186 -0.029592425 4283184681
1.7294842 0.032414503 -0.028166831 4284370246
1.7166607 0.021641145 -0.027679123 4279831307
1.701772 0.011013897 -0.027116388 4281276953
1.6958117 0.00057115935 -0.026891291 4281407769
1.6817935 -0.0097498409 -0.02636607 4281211160
1.6707106 -0.019935254 -0.025953397 4281342746
1.6725551 -0.030222734 -0.026028432 4281276700
1.668342 -0.040387113 -0.02587837 4281800983
1.6670641 -0.050592564 -0.025840849 4281277464
1.7845596 -0.065147862 -0.030267708 4293651437
4.6472435 0.89706117 -0.20031035 4284375649
3.7227705 0.39126849 -0.15069097 4284440666
2.5627365 0.18971661 -0.091858715 4291413444
2.4791563 0.16820188 -0.087602764 4294703343
2.4233229 0.14945509 -0.084748775 4287660147
2.3135071 0.12838437 -0.079191007 4283711292
2.1835778 0.10767264 -0.072631836 4283380793
1.8150138 0.078139402 -0.05410593 4291078827
1.7855177 0.065876834 -0.052603833 4282197283
1.8098463 0.055672385 -0.053805515 4286212447
1.7991713 0.044288803 -0.053254746 4285488718
1.7484825 0.032274235 -0.050701171 4285027403
1.6907251 0.020792581 -0.047797114 4279373063
1.6728441 0.010294845 -0.046895854 4281145624
1.6748731 3.1711999e-05 -0.04699599 4281211160
1.6698483 -0.010218071 -0.046745643 4281211160
1.663762 -0.020394653 -0.046445221 4281342746
1.6636055 -0.030602917 -0.046445221 4281277464
1.6643848 -0.040833827 -0.046495289 4281604635
1.6900586 -0.051823389 -0.047797114 4281935400
1.5749279 -0.058047529 -0.042039059 4279571220
4.8416162 0.96312433 -0.2699542 4283387476
3.7259204 0.41334125 -0.19606267 4283584845
3.667835 0.38413647 -0.19227496 4289703847
2.4576395 0.16635932 -0.11608592 4294042331
2.4197621 0.14889206 -0.11366427 4290619555
2.3428991 0.12975003 -0.10882095 4283514685
2.3615947 0.11625217 -0.10993864 4283053364
1.9055678 0.082161628 -0.081499703 4281407508
1.7973198 0.066470608 -0.074731484 4285092167
1.8366002 0.056632672 -0.077153139 4286474582
1.8279332 0.04514258 -0.076594293 4286342994
1.735371 0.032223295 -0.070819579 4285553998
1.7016041 0.021160448 -0.06870839 4281210388
1.6847351 0.010616205 -0.067652792 4281341976
1.6817743 0.00027886097 -0.067466512 4281604635
1.6817443 -0.010040317 -0.067466512 4281473049
1.673667 -0.02026061 -0.066969767 4281407769
1.6725134 -0.030511223 -0.066907667 4281277464
1.671297 -0.040748436 -0.066845573 4281604635
1.6730106 -0.051063918 -0.066969767 4281671458
1.7255276 -0.063278832 -0.070260733 4279373841
4.865406 1.0628283 -0.33447936 4286612611
4.997674 1.0596665 -0.34408426 4282270525
4.9777098 1.0235522 -0.34207395 4284836202
3.6830132 0.40929347 -0.23932385 4283057222
3.7925642 0.39795956 -0.24736515 4290821823
2.3340845 0.14350194 -0.13724384 4294835196
2.2602456 0.12500866 -0.1316596 4282200634
1.962171 0.09629529 -0.10932263 4279830794
1.835201 0.078703433 -0.099792175 4286276189
1.8107361 0.066510156 -0.097930767 4283707942
1.8230709 0.055772025 -0.09882424 4282984732
1.8203882 0.044509776 -0.098600872 4282787869
1.7458488 0.031921785 -0.093016632 4283183400
1.713106 0.020787075 -0.090559565 4281868571
1.6972461 0.010168659 -0.089368261 4281342746
1.6813209 -0.00025434059 -0.088176958 4281211160
1.6743072 -0.010531703 -0.08765576 4281211160
1.6652366 -0.020699618 -0.086985648 4281342746
1.6630843 -0.030881304 -0.086836733 4281604635
1.6568819 -0.040941641 -0.086389996 4281277723
1.6655703 -0.051377717 -0.087060101 4280683280
1.7030933 -0.062970638 -0.089889459 4279504400
6.402555 -0.86719698 -0.44504741 4288519833
6.388227 -0.90520841 -0.4443773 4290362296
6.3815651 -0.94424295 -0.44430283 4288850856
4.9726143 1.1497005 -0.40627727 4284505179
4.7443485 1.0663185 -0.38531181 4282860095
4.9921885 1.0898668 -0.40679705 4282070325
5.0650554 1.0732526 -0.4126882 4285032043
4.9788384 1.0231106 -0.40445793 4287729814
6.5335655 0.80695117 -0.53492898 4291676614
6.5611525 0.7695145 -0.53692156 4288914850
3.7002323 0.41114521 -0.28620237 4288716962
3.9048114 0.40961629 -0.30387571 4289440945
6.5276074 0.6440202 -0.53284973 4287203208
6.5195317 0.60285538 -0.5318101 4286940549
2.2781067 0.1405949 -0.16092944 4294832359
2.2699742 0.1261182 -0.16014972 4279632387
1.8547806 0.091708988 -0.12393666 4278912774
1.8582945 0.080455199 -0.12419657 4293519322
1.817935 0.067543522 -0.12064456 4284169776
1.7884421 0.055467568 -0.11804555 4282722587
1.803688 0.044861216 -0.11934506 4281735694
1.7770354 0.033295102 -0.11700594 4282328091
1.7234133 0.021724755 -0.11232769 4282393373
1.7055823 0.011037692 -0.11076828 4281342746
1.6986443 0.00057146838 -0.11016183 4281276953
1.6926384 -0.0098152021 -0.10964204 4281145367
1.6865692 -0.02012815 -0.10912222 4281211160
1.6844218 -0.03043991 -0.10894895 4281211669
1.6851995 -0.040799096 -0.10903559 4281473047
1.6839216 -0.051108066 -0.10894895 4281342492
6.5130725 -0.8022005 -0.53310966 4288516483
6.3262362 -0.81861401 -0.51716894 4287137391
6.2954278 -0.85393238 -0.51491648 4291807154
6.2930279 -0.89296442 -0.51517636 4287656552
6.2943292 -0.93258339 -0.51578283 4281083683
6.2884879 -0.97118711 -0.51578283 4289310126
6.3522468 -1.0209831 -0.52193385 4285624428
6.355689 -1.0615824 -0.52280021 4286022006
6.3412023 -1.0991987 -0.52210712 4286743932
6.3647351 -1.1435499 -0.52479279 4289705647
6.3546605 -1.182035 -0.52453285 4285496951
4.486135 1.0967231 -0.42158657 4287272333
4.4985881 1.0705597 -0.42218041 4283125834
5.0828309 1.176844 -0.48116797 4282465087
5.0656877 1.1401662 -0.47869366 4288849055
5.0541186 1.1050197 -0.4768132 4282531905
5.0471764 1.0710922 -0.47542757 4283256654
4.8723755 1.002751 -0.45701867 4287796117
6.339057 0.82482296 -0.59805441 4284506711
6.3558488 0.78738195 -0.59924209 4286743160
3.6151965 0.42484513 -0.32429671 4285887859
6.5044737 0.72489202 -0.61319715 4289504669
6.5117683 0.68528062 -0.6134941 4292992214
6.3950424 0.63332593 -0.60141945 4285164389
6.4097075 0.59508866 -0.60250813 4291152841
6.6085353 0.57270795 -0.6220057 4288520860
6.617877 0.53262794 -0.62259954 4288192146
1.9288493 0.11871906 -0.15446006 4279765511
1.8808583 0.1041553 -0.14961042 4279960839
2.0086756 0.098954022 -0.16227888 4294896874
1.8939246 0.081587747 -0.15079808 4288054133
1.8874289 0.069703914 -0.15010527 4281999116
1.8162098 0.055872254 -0.14297925 4281802776
1.8025916 0.044375233 -0.14159365 4282855464
1.779947 0.032876153 -0.13931727 4282395430
1.732355 0.021333456 -0.13456661 4281803295
1.7145422 0.010580728 -0.1327851 4281015578
1.7056189 5.3847558e-05 -0.13189435 4280621592
1.6976265 -0.010368519 -0.13110256 4280621592
1.6885757 -0.02068131 -0.13021182 4280687385
1.6844372 -0.030971427 -0.12981592 4280687385
1.6862051 -0.041353766 -0.13001387 4280818201
1.6869144 -0.051729154 -0.13011284 4281146653
1.7730817 -0.065203115 -0.13872345 4279242507
6.7029004 -0.28441721 -0.62952763 4288781449
6.6960592 -0.32529953 -0.62903273 4287004535
6.5886149 -0.36063349 -0.61854166 4287534477
6.6607728 -0.40557653 -0.62596464 4288454552
6.657166 -0.44637224 -0.62586564 4287927696
6.6672039 -0.48815379 -0.62715226 4289441962
6.6670585 -0.52928954 -0.62744921 4288587166
6.6240253 -0.56680137 -0.62349033 4288325023
6.5797944 -0.60371441 -0.61943245 4288586653
6.5056691 -0.75833678 -0.61369205 4284633417
6.3882966 -0.78443527 -0.60240918 4282855981
6.2688785 -0.80886823 -0.59092838 4294502633
6.2568941 -0.8463856 -0.59023559 4294438128
6.2525687 -0.88490051 -0.59033453 4293648353
6.2499747 -0.92368478 -0.59063148 4294371559
6.2235355 -0.95883846 -0.58855307 4285356889
6.2273612 -0.99858087 -0.58954275 4288845715
6.2171898 -1.0361189 -0.58914685 4287794051
6.2430739 -1.0798382 -0.59241295 4290166967
4.3808422 1.1835471 -0.46865755 4284834664
4.466826 1.1774093 -0.47775537 4283389785
4.3874245 1.0990884 -0.46699333 4282399543
4.399879 1.07356 -0.46765906 4285886572
4.4585986 1.0589393 -0.47365028 4286084211
4.4553285 1.0293256 -0.4725408 4283519565
5.0715928 1.1062711 -0.54155082 4283254852
5.0675907 1.072868 -0.54033035 4285427049
5.220108 1.0717236 -0.55697262 4284770407
6.2721901 0.85184002 -0.66869789 4292991446
6.2299905 0.80721182 -0.66337234 4288321663
6.2584991 0.77188832 -0.66603512 4278585349
3.6039038 0.42221862 -0.36713964 4284175954
6.4317727 0.67331213 -0.68400878 4286677626
6.1806092 0.60871917 -0.65538406 4285624681
6.4355927 0.59396851 -0.68356496 4292993246
6.4698114 0.55711061 -0.68700439 4294372586
6.5087714 0.52025062 -0.69099855 4292924879
6.5475225 0.48293337 -0.69499266 4287660414
6.5384631 0.44194591 -0.69366127 4283778886
6.5172448 0.40035728 -0.69099855 4286604889
6.5175943 0.36025107 -0.69077665 4288053616
2.0488665 0.10090934 -0.19106421 4293454054
1.9561133 0.084330663 -0.18063506 4293913831
1.8523127 0.068492517 -0.16898546 4285028424
1.8278639 0.05636514 -0.16621172 4283446825
1.8222142 0.045002569 -0.16554603 4283841328
1.7966211 0.033346895 -0.16266137 4283513394
1.7371669 0.02159456 -0.15600446 4282396196
1.7183841 0.010820474 -0.15389645 4280754202
1.6995356 0.00027769851 -0.15178841 4280491546
1.7193813 -0.010273721 -0.15400741 4280425753
1.7004048 -0.020590499 -0.15189937 4280491546
1.6952782 -0.03093181 -0.15134463 4280426013
1.6920758 -0.041259892 -0.15101179 4280687902
1.6858306 -0.051458195 -0.1503461 4280687902
6.5801024 -0.28284115 -0.69732261 4285755499
6.5693092 -0.32277107 -0.69632405 4282466623
6.5414052 -0.36164564 -0.69343942 4279242257
6.56287 -0.40324029 -0.69610214 4286874253
6.5453992 -0.44249535 -0.69443792 4292266184
6.5306668 -0.48177072 -0.69310653 4292658889
6.5206532 -0.52127826 -0.69232994 4282657323
6.5133719 -0.56093711 -0.69188613 4289370000
6.496942 -0.59970355 -0.69044381 4288844167
6.4713812 -0.63741231 -0.68800294 4289369476
6.4554882 -0.67586541 -0.68667156 4288972912
6.4512186 -0.7154628 -0.68667156 4290552717
6.4427595 -0.7545706 -0.68622774 4282593826
4.672452 -0.57621062 -0.48762977 4282527520
4.660944 -0.60384721 -0.4867422 4283579187
4.6463184 -0.63096285 -0.48552173 4284959302
4.6138253 -0.65540451 -0.48230428 4283840560
4.6018524 -0.68253493 -0.48141664 4281738266
4.5848098 -0.70878363 -0.47997433 4284698438
4.5597696 -0.73358536 -0.47764438 4292661961
6.0950894 -1.0191296 -0.65194464 4285491814
4.8844757 -0.9715184 -0.51802969 4290619806
4.8677144 -0.99927145 -0.51680928 4288909452
4.8663521 -1.0301498 -0.51736403 4286215535
4.8813014 -1.0646508 -0.51980489 4288981924
4.4635062 1.2063488 -0.53531301 4283058000
4.2165484 1.1118182 -0.50269628 4283650390
4.2665391 1.0970576 -0.50823498 4282993221
4.3625865 1.0648779 -0.51882005 4284701279
4.4482059 1.0569215 -0.52891272 4285098096
5.0437722 1.100916 -0.60214645 4281081122
5.0426655 1.0683001 -0.60116178 4285823610
5.3281035 1.0947205 -0.63648629 4285759106
6.3050733 0.93647772 -0.75242943 4287402381
6.2772961 0.89301455 -0.74824464 4288255631
6.0102787 0.8173846 -0.71415097 4286674795
6.0378151 0.78343219 -0.71698183 4289174931
3.6315022 0.448093 -0.41567746 4281019680
6.2835221 0.73707187 -0.74652147 4279702031
6.3086386 0.70080775 -0.74910623 4284111701
6.0660796 0.63616145 -0.71833575 4287402113
6.0333281 0.59531605 -0.71378171 4278190338
6.3945823 0.59143585 -0.75833738 4281151042
6.428741 0.55483913 -0.76215291 4281743177
6.4379592 0.51585931 -0.76289141 4281743941
6.4706936 0.47854823 -0.76658386 4281679188
6.456676 0.43769169 -0.76449144 4280957532
6.4760785 0.39910683 -0.76658386 4280760145
6.4863329 0.359804 -0.76756847 4280628567
6.4775152 0.31945813 -0.76621461 4281090663
1.8898605 0.080754735 -0.19646862 4294570470
1.8337929 0.067054227 -0.18945295 4283712830
1.8212749 0.055400506 -0.18785289 4283972914
1.8364619 0.044595167 -0.18969911 4284037420
1.8317398 0.033232834 -0.1890837 4283907123
1.7148159 0.020512406 -0.17456004 4282264616
1.6910925 0.0098351324 -0.17160609 4280819231
1.6891361 -0.00054213678 -0.17135993 4280622111
1.6891011 -0.010906471 -0.17135993 4280360222
1.6949564 -0.021341257 -0.1720984 4280295456
1.68884 -0.031633519 -0.17135993 4280623910
1.6935747 -0.042115383 -0.17197531 4280753697
1.6942762 -0.052536242 -0.1720984 4280951076
6.4526892 -0.27609509 -0.76289141 4280956997
6.3388662 -0.31022191 -0.74898314 4290165192
6.3685527 -0.35085168 -0.75292176 4280429887
6.3989677 -0.39191785 -0.75698346 4278259749
6.4261479 -0.43317074 -0.76067591 4278587944
6.4471221 -0.474336 -0.76362985 4278456097
6.4450798 -0.51396459 -0.76375294 4278456863
6.4408154 -0.55341643 -0.76362985 4281156432
6.4422402 -0.59338033 -0.76424527 4282076757
6.4424286 -0.63328552 -0.76473761 4281617235
6.4640846 -0.67548072 -0.76793772 4281549899
6.4469948 -0.71371365 -0.76633769 4281216550
6.402081 -0.74854034 -0.76129133 4282134562
4.6874452 -0.57755375 -0.54762119 4282462246
4.6749554 -0.60516012 -0.54651344 4282790439
4.647552 -0.63063711 -0.54355949 4283381547
4.6150999 -0.65510452 -0.53999013 4283249446
4.5864506 -0.6797787 -0.53691304 4282067488
4.5665007 -0.70548749 -0.53494376 4281870881
4.5542469 -0.73223537 -0.53395909 4281805862
4.5379219 -0.75820643 -0.53248209 4281082913
4.541985 -0.78755999 -0.53358984 4291873215
4.7627058 -0.85590768 -0.56202179 4284369475
4.7807813 -0.88946581 -0.56497574 4281408018
4.7567167 -0.91522527 -0.56263715 4284236607
4.8016281 -0.95444351 -0.56903744 4282527026
4.8131809 -0.98747361 -0.57125288 4282332468
4.7817864 -1.0116537 -0.56805277 4279044880
4.8588815 -1.0591322 -0.57863784 4292600289
4.0774493 1.1292616 -0.53897339 4288190365
4.0795188 1.1029292 -0.53829741 4284307038
4.0718384 1.0740875 -0.53626949 4284175964
4.0745134 1.0480959 -0.53572869 4287072394
4.3806491 1.069677 -0.57696372 4284111448
5.0648127 1.1057159 -0.66903275 4285952625
5.0656857 1.0733861 -0.66822153 4283717205
5.3575196 1.1008965 -0.70796943 4282204480
6.0809035 1.0562122 -0.80382395 4288784032
6.1165876 1.0237856 -0.80787981 4289045147
6.1403613 0.98907083 -0.8103134 4285752150
6.147294 0.95152718 -0.81044859 4290946705
6.1118536 0.90767968 -0.80477029 4291277722
6.1035743 0.86820829 -0.80287755 4294767071
5.8672667 0.79791188 -0.76961917 4288978574
5.9614677 0.77349162 -0.78192204 4279240961
6.2345567 0.77003884 -0.81883079 4280161560
6.2854166 0.73719162 -0.825185 4279899671
6.2947454 0.69915771 -0.82586104 4289441186
5.8958788 0.61828202 -0.77056551 4291022526
5.9508357 0.58714962 -0.77759576 4280232496
6.3134542 0.58381182 -0.82680738 4280692042
6.3179049 0.5451473 -0.82694256 4283584095
6.31323 0.50573862 -0.82586104 4281615194
6.3004041 0.46582398 -0.82369787 4280763755
6.2991896 0.42688891 -0.82315707 4281223524
6.3145466 0.38902104 -0.82491463 4281224807
6.3009858 0.34939164 -0.82275146 4282870397
6.315876 0.31135637 -0.82450902 4284705394
6.3493443 0.27396187 -0.82883531 4287068537
1.8457533 0.068571173 -0.21368991 4284962883
1.822371 0.056512523 -0.21044518 4283053346
1.8395222 0.04574481 -0.21274354 4283513384
1.8437308 0.034530234 -0.21328433 4283513388
1.7299726 0.021805966 -0.19773668 4282198304
1.7152117 0.011097831 -0.19570874 4280752923
1.6984036 0.00057144207 -0.19341038 4280490264
1.7023385 -0.009873664 -0.19395117 4280687902
1.7081903 -0.020391135 -0.19476235 4280557599
1.7010983 -0.030745104 -0.19381598 4280426781
1.7365367 -0.042053752 -0.19868307 4280492573
1.7441688 -0.052950427 -0.19976464 4280426531
6.2256985 -0.2665005 -0.81193572 4291809742
6.2744174 -0.30716962 -0.81883079 4291146160
6.0260749 -0.33207238 -0.7851668 4286148974
6.0001884 -0.36758584 -0.78192204 4291876053
6.2696772 -0.42274252 -0.81910115 4288258981
6.2472029 -0.45974892 -0.81639725 4287403408
6.2442641 -0.49807239 -0.81639725 4289507754
6.2558975 -0.53765064 -0.81842518 4287996060
6.2514949 -0.57593507 -0.81829 4287142039
6.2340379 -0.61292452 -0.81639725 4286616725
6.2449417 -0.6527102 -0.81842518 4286680976
6.2526364 -0.69232535 -0.82004756 4280098077
4.7366848 -0.55381763 -0.61238527 4282594862
4.7145128 -0.58056855 -0.60981655 4282002467
4.7039838 -0.60859483 -0.60887015 4281936932
4.666779 -0.63291639 -0.60427344 4283450689
4.652998 -0.66014671 -0.60292149 4281674537
4.6253371 -0.68519789 -0.59967679 4281739293
4.5711069 -0.70584989 -0.59278172 4281673502
4.5236459 -0.72696346 -0.58683306 4281345311
4.5533051 -0.76042157 -0.59156495 4281017374
4.5143843 -0.78242087 -0.58683306 4281742126
4.6265216 -0.83113855 -0.60305667 4285358938
4.7323823 -0.88017356 -0.61846912 4280819480
4.7648382 -0.91649622 -0.62374181 4280424732
6.0010877 -1.1926162 -0.79652333 4285358948
4.7969098 -0.98386097 -0.62982565 4283056704
5.9801846 -1.2649384 -0.79571211 4278715911
5.9790864 -1.3030857 -0.79665852 4286744448
5.9593778 -1.3371443 -0.79503614 4286877575
4.0451875 1.1473879 -0.58762825 4286018934
3.9282458 1.0881834 -0.56848037 4283188792
4.1248388 1.1154952 -0.59779137 4280557339
4.1306496 1.0899122 -0.59764409 4282203455
4.1161876 1.0591182 -0.59440368 4283321936
4.3231058 1.0841802 -0.62518758 4284111198
5.0055366 1.1256983 -0.72549313 4280557347
5.0268435 1.0981334 -0.7277025 4283519315
5.0334873 1.0672686 -0.7277025 4282203714
5.3867631 1.1077631 -0.78043288 4287467922
5.8648705 1.1687264 -0.85201657 4285098854
5.903008 1.1387194 -0.85672992 4284306509
5.9186344 1.104112 -0.85805553 4285949016
5.9515791 1.0725166 -0.86203241 4294104001
5.9083514 1.0273271 -0.8545205 4291208594
5.9711204 1.0005462 -0.86306345 4292524715
6.018158 0.97051096 -0.8692497 4285222210
6.0494118 0.93750924 -0.87307924 4281079825
6.0765734 0.90357774 -0.87631971 4278911488
5.7471223 0.81851244 -0.82594597 4286808437
5.7177358 0.77855569 -0.82079077 4286215286
3.5694971 0.4633064 -0.49748585 4279043584
6.1175313 0.75673282 -0.87941283 4280494912
6.1210775 0.7190665 -0.87926549 4284246132
5.8117948 0.6465463 -0.8322795 4286549364
5.7497478 0.60393763 -0.822411 4278849298
6.101779 0.60315615 -0.87455219 4281283919
6.1260471 0.56762534 -0.87764531 4283784300
6.1382828 0.5307945 -0.87897092 4281352271
6.1295938 0.49216849 -0.8772034 4281552230
6.0979753 0.45198321 -0.8720482 4281356910
6.113462 0.41543248 -0.873963 4281881448
6.1158962 0.37791315 -0.873963 4288522153
6.12995 0.34104118 -0.87573051 4287265379
6.132915 0.30347118 -0.8758778 4288578927
6.1158872 0.26501742 -0.87307924 4291009158
1.8138919 0.066628106 -0.23177189 4285619799
1.8073465 0.055280864 -0.23074085 4282263319
1.8234719 0.044587158 -0.23309752 4283643682
1.7831657 0.032629147 -0.22705856 4283972906
1.7230026 0.020913929 -0.21807379 4282329890
1.6756232 0.010024186 -0.2110038 4280556057
1.6766422 -0.00025689241 -0.21115108 4280556059
1.6973796 -0.01066069 -0.21424422 4280753695
1.68937 -0.020982631 -0.21306586 4280622109
1.6803092 -0.031189017 -0.21174026 4280427294
1.6879966 -0.041688483 -0.21291858 4280229915
1.7312094 -0.053356297 -0.21939942 4280491546
6.0814862 -0.25921887 -0.86792403 4288059794
5.6618876 -0.27622798 -0.80561972 4288452751
5.9909372 -0.32907176 -0.85496241 4285819486
5.8061614 -0.35470429 -0.82771349 4286611057
5.9696703 -0.40144011 -0.85245848 4293649893
6.0174041 -0.44174519 -0.85997033 4290624955
6.0234547 -0.47936344 -0.86129594 4289574579
5.9228363 -0.50796556 -0.84671408 4286941325
5.9560513 -0.54764158 -0.85216385 4290168258
6.0510168 -0.59381795 -0.86689299 4287800735
6.0580812 -0.63206202 -0.86851323 4288459180
6.0619535 -0.67008972 -0.86969155 4293455334
6.0164652 -0.70246297 -0.8635053 4281478439
4.7495489 -0.58435148 -0.67408836 4281278491
4.7036929 -0.60804099 -0.66775483 4282135340
4.6802702 -0.63423938 -0.66480899 4287728774
4.6400557 -0.65781713 -0.65935922 4286742392
4.6232114 -0.68439585 -0.65744442 4279899410
4.5788445 -0.70657599 -0.65140551 4281410853
4.5392652 -0.7290206 -0.64610296 4281476132
4.5190964 -0.75425798 -0.64374632 4281213987
4.49684 -0.77893823 -0.6410951 4281674538
4.5056062 -0.80895925 -0.64315718 4280952347
4.6940813 -0.87251204 -0.67246819 4279045651
5.8299813 -1.1204082 -0.84553576 4279308052
5.7900105 -1.1496164 -0.84052783 4284963930
5.7770338 -1.1839312 -0.83964407 4280618504
4.8338385 -1.0217743 -0.69721317 4286671975
5.7823668 -1.2591506 -0.8427372 4284500806
5.7368898 -1.2861757 -0.83699286 4283252281
5.7645516 -1.3295702 -0.84244263 4284634187
5.7437735 -1.3619517 -0.84052783 4285490007
5.7583733 -1.402783 -0.84406281 4283976514
5.7486978 -1.4378495 -0.84391552 4283714370
5.7321024 -1.4711303 -0.8427372 4289375141
3.7729714 1.0942787 -0.59472883 4293582041
3.8166597 1.0816017 -0.60093731 4281805348
4.1765738 1.1283799 -0.65888315 4281084713
4.0974989 1.080092 -0.64455593 4283257170
4.1709828 1.0721282 -0.65569931 4284836204
4.8405576 1.0870494 -0.76124364 4283452232
4.9792838 1.0861429 -0.78305292 4285029470
5.0128989 1.0612936 -0.78751034 4285949028
5.7107863 1.172426 -0.90133262 4292786351
5.7556362 1.1448722 -0.9075411 4292456606
5.7034159 1.0981525 -0.89783037 4291009926
5.7119875 1.0634977 -0.89814878 4293773485
5.7378397 1.0319231 -0.90133262 4292065696
5.7518449 0.9980467 -0.90260613 4294765781
5.7461758 0.96078235 -0.9006958 4294963674
5.7402663 0.92362517 -0.89878553 4294962908
5.7458253 0.88838613 -0.89878553 4294963168
5.7179651 0.84819067 -0.89337301 4294568409
5.6302042 0.79990393 -0.87824976 4291804842
5.6467457 0.76693612 -0.88016003 4280619791
5.7130265 0.74026203 -0.89018917 4283844166
5.7292194 0.70664304 -0.89209944 4279831823
5.7314863 0.67124635 -0.89178109 4288912532
5.6334486 0.62475574 -0.87522513 4287467132
5.6401215 0.59048593 -0.87570268 4280952346
5.7271514 0.56408745 -0.88923401 4284502350
5.7462335 0.53038651 -0.89178109 4280488977
5.7326584 0.49367937 -0.8890748 4291277990
5.7198334 0.45723754 -0.88652772 4294104515
5.723516 0.42220527 -0.88668692 4294498244
5.7447143 0.38834235 -0.88971156 4293973192
5.7519159 0.35338849 -0.89050752 4291606175
5.7579188 0.31830648 -0.89114434 4283248658
5.7420144 0.28209975 -0.88827884 4280615936
5.7248964 0.24605791 -0.8852542 4281867031
1.8174647 0.06721127 -0.25453547 4285099636
1.8148825 0.055967592 -0.25405788 4279567872
1.8013743 0.044492338 -0.25182921 4283054124
1.8114843 0.033619549 -0.25342113 4283184683
1.7346569 0.021563923 -0.24100415 4282264097
1.6824334 0.010602232 -0.232567 4280687385
1.6903648 0.00027829871 -0.23384051 4280358937
1.6765136 -0.010007879 -0.23161183 4280753695
1.6941895 -0.020513816 -0.2344773 4280687902
1.6811999 -0.030671706 -0.23240779 4280753695
1.6819669 -0.041011069 -0.232567 4280753436
1.7181945 -0.052453537 -0.2384571 4280359711
5.7189798 -0.24577542 -0.88429904 4288118376
5.7094755 -0.28047377 -0.88302553 4287721818
5.6948323 -0.31479192 -0.88095599 4286602316
5.6819544 -0.3490622 -0.87920493 4289235843
5.6580362 -0.38245317 -0.87570268 4284565569
5.6644444 -0.41781726 -0.8771354 4285880915
5.6863756 -0.45453402 -0.8811152 4286209108
5.6962671 -0.49051839 -0.88318473 4286142798
5.6833196 -0.52455282 -0.88159281 4285879111
5.6809764 -0.5595119 -0.88175195 4286274380
5.6793995 -0.59456491 -0.88207036 4286341715
5.6923256 -0.63125288 -0.88477665 4280356100
5.6883454 -0.66616839 -0.88477665 4281277464
5.6087046 -0.69174856 -0.87251884 4281607204
4.7222266 -0.61179179 -0.72908688 4281805866
4.6939278 -0.63743216 -0.72510707 4281542694
4.6684241 -0.66316509 -0.72160482 4281410336
4.6359477 -0.68759477 -0.71698827 4281016857
4.6072502 -0.71225458 -0.71300846 4281411615
4.5871978 -0.73800039 -0.71046138 4281740835
4.5728459 -0.76450437 -0.70886946 4281674529
4.5554237 -0.79035348 -0.70679998 4281541924
4.5602055 -0.8200382 -0.7083919 4282135593
4.69873 -0.87475747 -0.73195231 4282529589
5.6520391 -1.088239 -0.88939321 4283579179
5.645256 -1.1228987 -0.88939321 4288510808
5.6353583 -1.1569204 -0.8889156 4288838744
5.6271877 -1.191272 -0.88875645 4289563255
5.6352053 -1.2291447 -0.89130348 4280749578
4.9658074 -1.1150521 -0.78193861 4289040778
5.61585 -1.2973157 -0.89066672 4285748806
5.5904946 -1.3276423 -0.88780129 4284760632
5.5918341 -1.3642607 -0.88939321 4284235579
5.572824 -1.3959063 -0.88764209 4283973434
5.5746717 -1.4327784 -0.88939321 4283184948
5.5762758 -1.4697253 -0.89114434 4289703845
3.6868815 1.0940136 -0.62813139 4288453012
3.7001481 1.073294 -0.62932765 4283386947
4.1085601 1.1646103 -0.70178813 4283980628
4.1099315 1.1377997 -0.70076275 4278651658
4.1253953 1.114876 -0.70230085 4284046686
4.141685 1.092057 -0.70400983 4283519315
4.6378822 1.1020411 -0.78792048 4284901217
4.7482285 1.0975527 -0.80637735 4281542944
5.0461383 1.1339164 -0.8581593 4279174657
5.0443377 1.1010396 -0.85662121 4290426024
5.0673842 1.0735427 -0.85952646 4285554256
5.5882664 1.1482322 -0.95061475 4292262572
5.6174312 1.1183509 -0.95454544 4288905839
5.6174154 1.0825554 -0.95334911 4290352771
5.6278262 1.04879 -0.95403272 4291471500
5.6196108 1.0116173 -0.95146924 4292325521
5.618917 0.97593528 -0.95027298 4292982420
5.63063 0.94241697 -0.95129836 4293180065
5.623661 0.90581089 -0.94907671 4293244831
5.6135349 0.86887318 -0.94634235 4293839279
5.6129127 0.83354318 -0.94531697 4283510565
5.631578 0.80103266 -0.9477095 4280946957
3.543251 0.48139021 -0.5813055 4281868571
5.6048322 0.7271663 -0.94138628 4281474840
5.6179891 0.6938507 -0.94292438 4294964200
5.6143122 0.65844649 -0.94155723 4279502080
5.6192255 0.62409437 -0.94172812 4280753176
5.633728 0.59073615 -0.94360799 4280818199
5.6048899 0.55295819 -0.93796837 4282264356
5.6003284 0.51782948 -0.93660116 4294960855
5.6132169 0.48430571 -0.93831015 4294495411
5.6239395 0.45048553 -0.93967736 4294295459
5.6030159 0.41422087 -0.93557578 4287124804
5.5907063 0.37883142 -0.93301237 4284035369
5.5860419 0.34409487 -0.93181604 4283380006
5.5900159 0.30992255 -0.93215787 4282196246
5.5898442 0.27551961 -0.93181604 4282263066
5.5943828 0.24134381 -0.93232876 4282329120
1.8276643 0.066826224 -0.27830437 4288443750
1.8093286 0.055029441 -0.27505732 4281209358
1.8510014 0.044957485 -0.282235 4281803043
1.8266145 0.03313658 -0.27796257 4280751128
1.7046174 0.020383462 -0.2567713 4282000672
1.6987987 0.0098852776 -0.25574592 4280687385
1.6889746 -0.00054219668 -0.25403693 4280556570
1.6899248 -0.010911221 -0.25420782 4280622109
1.6917964 -0.021303648 -0.25454962 4280687902
1.6867083 -0.031595062 -0.25369513 4280753695
1.6864827 -0.041943915 -0.25369513 4280819231
1.6822543 -0.052171756 -0.25301155 4280622109
5.5905228 -0.23936136 -0.93164515 4292328108
5.5899329 -0.27370763 -0.93181604 4291866528
5.5891318 -0.30805567 -0.93198693 4286273353
5.5871367 -0.34234414 -0.93198693 4290352267
5.5701852 -0.37562844 -0.92942351 4281667079
5.5874281 -0.41124174 -0.93284142 4281601799
5.6044436 -0.4470807 -0.93625939 4288905591
5.6015944 -0.48146051 -0.93625939 4287524190
5.5985351 -0.51582217 -0.93625939 4286799697
5.5933032 -0.549972 -0.93591762 4282392342
5.5986438 -0.58520156 -0.93745565 4282261526
4.9936409 -0.55308533 -0.83252466 4283116837
4.8805456 -0.57091999 -0.81338418 4281735703
4.8544583 -0.59808999 -0.80945355 4293055951
4.7832727 -0.61915416 -0.7976616 4281608994
4.6758876 -0.63447487 -0.7795465 4281740323
4.6562977 -0.66094202 -0.77681214 4282790701
4.6424084 -0.68805796 -0.77510315 4282856743
4.6293349 -0.71517855 -0.77356505 4282659364
4.6161036 -0.74216467 -0.77202702 4282725159
4.586195 -0.76625937 -0.76758367 4282857006
4.5979114 -0.79724276 -0.77048892 4281672219
4.5812955 -0.82335156 -0.76843816 4281671968
4.6701221 -0.86890513 -0.78501517 4283646018
5.5897155 -1.0752916 -0.94839311 4280422930
5.6004086 -1.1130228 -0.95146924 4281210388
5.6233959 -1.1534967 -0.95676708 4280947218
5.6191044 -1.1885906 -0.95727974 4281539355
5.6261458 -1.2261907 -0.95984322 4280357650
5.6098638 -1.2587494 -0.95830518 4280161299
5.5415492 -1.2791978 -0.94753861 4279635468
5.5585227 -1.319086 -0.95198196 4290683550
5.508203 -1.3429075 -0.94446248 4291862165
5.4530225 -1.3649665 -0.9360885 4289823603
5.4388185 -1.3969305 -0.93506312 4288577378
5.4301443 -1.430276 -0.93506312 4288052074
5.4098506 -1.4604886 -0.93301237 4289040006
5.4197817 -1.4989042 -0.93643028 4287463294
4.0462141 -1.1461061 -0.6905089 4287924872
4.0561409 -1.175845 -0.6935851 4284962129
4.0422363 -1.1987517 -0.69238877 4286014045
4.0640368 -1.2323874 -0.69768661 4280556310
3.9886324 -1.2363167 -0.68538201 4290559675
3.9837897 -1.2616588 -0.68589467 4288719270
3.542938 1.075564 -0.65045613 4282529585
3.6097887 1.0717057 -0.66217411 4286609525
4.1154447 1.1670159 -0.75756586 4283978837
4.1424241 1.1472505 -0.76141083 4281083430
4.1379976 1.1187336 -0.75921369 4282795331
4.141932 1.0925703 -0.75866443 4281940792
4.5767903 1.1175534 -0.83831006 4282202424
5.3152595 1.2633009 -0.97837657 4294765286
5.1476254 1.1901501 -0.94487053 4282858550
5.0656271 1.1385008 -0.9278428 4284044115
5.1003714 1.1134759 -0.9331525 4291935417
5.1042223 1.0815486 -0.93260324 4282786843
5.5604782 1.1425866 -1.018108 4280882191
5.580883 1.1111332 -1.0206712 4280489228
5.5914569 1.0776126 -1.0214037 4280751631
5.6008635 1.043824 -1.021953 4280488975
5.6507025 1.0172733 -1.0301921 4280423441
5.6694303 0.98476839 -1.0325724 4280359190
5.7025146 0.95450538 -1.037699 4280293918
5.7111759 0.91996634 -1.0382483 4280295207
5.7069979 0.88340265 -1.0364174 4282532418
5.7103662 0.8480798 -1.0360512 4283453269
3.5294156 0.50220925 -0.62482303 4282261538
5.7096276 0.77648443 -1.0340371 4280296495
5.7133102 0.74130976 -1.033854 4279836714
5.7118969 0.70551699 -1.0327555 4279967528
5.7083068 0.66954046 -1.0312907 4279769639
5.7054687 0.63374305 -1.030009 4280293665
5.7004495 0.59780085 -1.0283612 4285819756
5.7069449 0.56310171 -1.0289105 4280426282
5.7122507 0.52825487 -1.0292767 4279900457
5.689919 0.4909994 -1.0245162 4280624169
5.6820445 0.45521459 -1.0225022 4280951074
5.7043395 0.42179021 -1.0261641 4283118638
5.7038774 0.38658187 -1.0256149 4282788133
5.6855369 0.35030803 -1.0217699 4281144595
1.8956928 0.10538717 -0.31447959 4285424212
1.8982676 0.093850113 -0.31484577 4283842349
1.8899679 0.081819929 -0.31319794 4280814852
1.8550673 0.06891524 -0.30660656 4282064149
1.8475941 0.057289358 -0.30514181 4283575068
1.8538076 0.046097051 -0.30624038 4284826928
1.8530725 0.034703236 -0.30605727 4284696631
1.7411865 0.021944812 -0.28518462 4286804333
1.7265421 0.011168589 -0.28243822 4280556056
1.7128147 0.00057301414 -0.27987492 4280885534
1.7029554 -0.0098773818 -0.27804399 4280424983
1.7008965 -0.020302419 -0.2776778 4280622363
1.6977912 -0.030684575 -0.27712852 4280688156
1.6906912 -0.040933315 -0.27584687 4280752925
1.6845125 -0.051126137 -0.2747483 4280621600
5.6911073 -0.24358334 -1.0217699 4279637023
5.6796861 -0.27801743 -1.0199389 4282665295
5.6484261 -0.31123742 -1.0144461 4281545782
5.6797719 -0.34793571 -1.0206712 4282727485
5.6441813 -0.38052887 -1.0144461 4288714388
5.6662502 -0.41695908 -1.0190234 4283847251
5.6782856 -0.45289215 -1.0217699 4283321683
5.6744204 -0.48764065 -1.0215868 4283453520
5.6752372 -0.5228101 -1.0223191 4281939505
5.6709442 -0.55752653 -1.022136 4281150757
5.6683941 -0.59241462 -1.0223191 4283978573
5.6675839 -0.62750876 -1.0228684 4285031525
5.6694856 -0.66295815 -1.0239669 4280624431
5.6701889 -0.6983341 -1.0248824 4286084731
4.7649355 -0.61648571 -0.85570395 4279962633
4.7337861 -0.64200962 -0.85057735 4283117355
4.715158 -0.66897088 -0.84783095 4281540636
4.7041569 -0.696881 -0.84654927 4279568134
4.6997924 -0.72573197 -0.84654927 4279765513
4.6806917 -0.75221473 -0.84380287 4280029455
4.6420498 -0.77525002 -0.8373946 4280753435
4.6149273 -0.79985541 -0.83318347 4279832334
4.5857425 -0.82380927 -0.82860613 4280094225
4.5390415 -0.84419823 -0.82073313 4281674027
4.5357075 -0.87240493 -0.82109928 4282268217
4.5167699 -0.89753544 -0.81853598 4282070838
5.6668162 -1.1623529 -1.0382483 4283188036
5.6576538 -1.196695 -1.0378821 4282134062
5.5416641 -1.2077247 -1.0171925 4281805096
5.4967389 -1.2333084 -1.0100518 4289372059
5.4737425 -1.2634737 -1.0071224 4287265913
5.3090177 -1.2598004 -0.97709495 4285488475
5.3164697 -1.2960788 -0.9800244 4281736985
5.3847098 -1.3477771 -0.99467188 4291539879
5.3430123 -1.3722302 -0.98826367 4288578424
5.0369358 -1.3265965 -0.93095541 4283840557
5.031549 -1.3582464 -0.93150467 4284236341
4.0661321 -1.1243721 -0.74658024 4283777845
4.0459142 -1.1455494 -0.74401695 4282989620
4.0237012 -1.1659739 -0.74108744 4283319354
4.0485172 -1.2001437 -0.74731261 4280623895
4.0401363 -1.2246772 -0.7471295 4282140479
3.4278433 1.0874201 -0.67406291 4292532178
3.4250844 1.063455 -0.67211711 4282727475
4.1203465 1.1968724 -0.81182325 4282662725
4.1177111 1.1414977 -0.80832088 4281808947
4.1492534 1.1228793 -0.81337988 4282334778
4.1598582 1.0984015 -0.81415814 4283584079
4.1874156 1.0782433 -0.81843883 4283253582
4.3728013 1.0974654 -0.85501927 4279571220
5.3226933 1.3014615 -1.0476502 4291407265
5.1473761 1.2251302 -1.0102916 4286009407
5.2656412 1.2192141 -1.0328624 4282395165
5.0902553 1.1457016 -0.99569833 4281999644
5.1594725 1.1280791 -1.0083457 4284961861
5.4215169 1.1506222 -1.0601032 4282064149
5.4332786 1.1183246 -1.061076 4281472533
5.4352288 1.0840054 -1.0601032 4282393132
5.4485188 1.0519381 -1.0614653 4282984750
5.4799395 1.023173 -1.0665243 4285091924
5.656003 1.0202091 -1.1007698 4280885032
5.6669884 0.98632717 -1.1017426 4280296747
5.7000184 0.9560855 -1.1071907 4279441711
5.7067461 0.92124933 -1.1073853 4279243823
5.709384 0.88576436 -1.1068016 4286876573
3.5221343 0.52386397 -0.66705811 4281940289
5.7256498 0.81646669 -1.107969 4279838013
5.719861 0.77985966 -1.1058288 4279772736
5.7167573 0.7437346 -1.1042721 4279838011
5.7163463 0.70803934 -1.1032993 4279773249
5.7166862 0.67249197 -1.1025209 4279641661
5.7177806 0.63707596 -1.1019372 4284507245
5.7186556 0.60167187 -1.1013534 4279968560
5.7193108 0.56628096 -1.1007698 4279576898
5.702168 0.52926928 -1.0966836 4279904323
5.7287612 0.49630815 -1.1013534 4278191127
5.7101893 0.45941281 -1.0970727 4285297015
5.7021403 0.42356557 -1.0949324 4285490019
5.698761 0.38816878 -1.093765 4281014038
5.693203 0.35270771 -1.0922084 4281079572
1.8228991 0.10090949 -0.32285187 4293381305
1.8107485 0.089087635 -0.32032236 4284630577
1.8142008 0.078103885 -0.3209061 4281143565
1.8019032 0.066492155 -0.3183766 4282066469
1.7865908 0.05494193 -0.31526339 4282001698
1.7917973 0.044102468 -0.31623626 4280093188
1.7949761 0.033163663 -0.31682 4279501568
1.7451251 0.021499369 -0.3068966 4280884246
1.7305111 0.010690209 -0.30397794 4280556569
1.7236779 6.6848937e-05 -0.30261588 4280359190
1.7089326 -0.010429754 -0.29969725 4280556569
1.7009901 -0.020824725 -0.29814062 4280688409
1.6978879 -0.031209366 -0.29755691 4280688409
1.7074707 -0.041860484 -0.29950267 4280228632
1.692475 -0.051895797 -0.29658401 4280228384
5.7048626 -0.24224348 -1.0933758 4280033323
5.6934714 -0.27676907 -1.0914301 4279441184
5.641715 -0.30897313 -1.0815066 4283782746
5.6681066 -0.34530813 -1.0871494 4283913812
5.6580515 -0.37955683 -1.0855927 4283190346
5.6634421 -0.41483852 -1.0871494 4283914069
5.6793694 -0.45105255 -1.0908463 4284769380
5.6735625 -0.48564166 -1.0902625 4284900966
5.6724291 -0.52062374 -1.0906518 4284901477
5.6749859 -0.55599195 -1.0918192 4284901477
5.6763449 -0.59130973 -1.092792 4285097314
5.6823602 -0.62720215 -1.0947379 4287006093
5.6842508 -0.66273695 -1.0959053 4280099895
5.6927338 -0.69915426 -1.0984348 4281613385
4.7378664 -0.61161208 -0.9083333 4285556584
4.7184711 -0.63857061 -0.90522009 4281475354
4.6862984 -0.66352969 -0.89957738 4280029200
4.6734056 -0.69098276 -0.89782619 4279768350
5.6947842 -0.87747657 -1.1036884 4280493361
4.6616688 -0.74781525 -0.89724243 4279833624
4.6473165 -0.77479404 -0.89529669 4280293914
4.5438852 -0.78626096 -0.87544984 4284898395
4.4839406 -0.80427015 -0.86435896 4282397231
4.4779568 -0.8315891 -0.86416441 4281541922
4.499743 -0.86422294 -0.86961251 4281872170
4.5126371 -0.89543927 -0.87330949 4280228885
4.4503598 -0.91151392 -0.86182946 4280624413
4.4437227 -0.9386012 -0.86163491 4282201131
4.4100838 -0.95980763 -0.85599214 4282792494
4.3964534 -0.9851355 -0.85443556 4282265889
4.3788557 -1.0094519 -0.85210061 4281279255
4.361125 -1.0335897 -0.84976572 4280095498
4.3327799 -1.0549979 -0.84529042 4286344811
4.3176599 -1.0794247 -0.84353924 4291410615
4.2986031 -1.1027317 -0.84100974 4284567625
5.2309437 -1.3759053 -1.0336407 4292329656
5.2422924 -1.4133334 -1.0377269 4290156945
5.2297392 -1.444429 -1.0369486 4282262298
4.1022272 -1.1604145 -0.80637509 4283053095
4.0997415 -1.186926 -0.80734795 4281870626
4.0810943 -1.2087196 -0.80501306 4279242509
3.3273106 1.0774031 -0.69814223 4289174940
3.3469172 1.0611053 -0.70103145 4282266415
4.1039963 1.1910242 -0.86179757 4284244325
4.1140509 1.1666207 -0.86241668 4284637542
4.1409349 1.1468381 -0.86675054 4280492576
4.1488385 1.1216635 -0.86695695 4284834142
4.1622658 1.0979319 -0.86840153 4284635486
4.1651335 1.0713973 -0.86757606 4282926147
5.255528 1.3174487 -1.1032562 4287134822
5.1627531 1.260582 -1.0813805 4284762663
5.2284608 1.2426775 -1.0939693 4290486405
5.2112002 1.204844 -1.0886036 4280091648
5.1001153 1.1462494 -1.0630132 4283843381
5.2791276 1.1524869 -1.1001606 4288317562
5.2841854 1.1196676 -1.0997479 4281737237
5.3062916 1.0903735 -1.1030499 4290682260
5.3215189 1.0595132 -1.1049073 4293053106
5.4960608 1.059234 -1.1410229 4279110923
5.5755625 1.0391105 -1.1567074 4279772210
5.5876112 1.0059197 -1.1579456 4279904309
5.6187439 0.97596782 -1.1633114 4279773760
5.6410322 0.94421846 -1.1668198 4278388245
5.6592784 0.91161001 -1.1695026 4290034108
5.6579967 0.87582093 -1.168058 4280430651
5.7097216 0.84798414 -1.177964 4279707967
5.7419419 0.81679058 -1.1837425 4279182652
5.7410278 0.78075254 -1.1825043 4279315519
5.7398887 0.74475652 -1.181266 4279512132
5.741437 0.70916367 -1.1806469 4279774789
5.7485957 0.67426324 -1.181266 4281548621
5.7419271 0.63779032 -1.1789958 4279705386
5.7408662 0.6020366 -1.177964 4279839551
5.7405577 0.56641585 -1.1771386 4279511618
5.7390532 0.53073162 -1.1761067 4279641150
5.7490253 0.4960959 -1.1775513 4278584096
5.7256274 0.45870319 -1.1719792 4283844444
5.7136965 0.42248145 -1.1688836 4282590778
5.7083712 0.38688615 -1.1672325 4282064685
1.8432026 0.11382838 -0.3499876 4283378461
1.8448433 0.10257068 -0.35019398 4281867542
1.8415289 0.091056518 -0.34936848 4281408786
1.8332549 0.07937631 -0.34751108 4281606676
1.8161069 0.067475989 -0.34379634 4282395935
1.8213767 0.056481905 -0.34482822 4282722849
1.81582 0.045160368 -0.34358996 4281866253
1.8101929 0.033909153 -0.34235173 4282721558
1.7516631 0.02207453 -0.32996923 4281803030
1.7400241 0.011252785 -0.32749271 4280949526
1.7341896 0.00057534577 -0.32625449 4280293397
1.7263328 -0.010018276 -0.32460347 4280490776
1.7252605 -0.020598765 -0.32439709 4280688155
1.7221667 -0.031130666 -0.32377797 4280556569
1.720965 -0.041673187 -0.32357159 4280359961
1.722633 -0.052291863 -0.32398435 4280162589
1.7555254 -0.064081639 -0.3310011 4280490266
5.734808 -0.24545671 -1.1711537 4279834646
5.7195115 -0.27996954 -1.1682644 4281611314
5.6795835 -0.31295639 -1.1602157 4284440413
5.6902528 -0.34857839 -1.1628987 4283453518
5.6333365 -0.37979701 -1.1513417 4283848276
5.6289482 -0.41421157 -1.1509289 4284703839
5.6896996 -0.4538033 -1.1643432 4284703585
5.6897326 -0.48895764 -1.1649624 4284900968
5.6817536 -0.52341086 -1.1639305 4284901228
5.6784358 -0.5582636 -1.1639305 4284901227
5.6797686 -0.59360421 -1.1649624 4286017905
5.6808825 -0.62898213 -1.1659943 4286347133
5.6633101 -0.66223562 -1.163105 4280822840
5.730032 -0.70570838 -1.1781704 4280165685
5.729476 -0.74135643 -1.1789958 4279838265
5.7238493 -0.77636635 -1.1787895 4280627519
5.7034783 -0.80927223 -1.1754875 4282664265
4.7159882 -0.69863462 -0.96601689 4282467656
5.7346983 -0.88562602 -1.1843616 4283189847
5.7262578 -0.92033082 -1.1837425 4284571221
4.7901535 -0.79999667 -0.984797 4281346840
4.7562318 -0.82435811 -0.97860575 4281870889
4.7491579 -0.85318017 -0.97819304 4281608487
4.8294482 -0.8982349 -0.99656045 4280426266
5.6088562 -1.0789092 -1.1651688 4280492576
4.7614398 -0.94617563 -0.9843843 4281542694
4.7804656 -0.98048693 -0.98975003 4281607715
4.8873186 -1.0337015 -1.0141023 4281213727
4.9153008 -1.0711732 -1.0215318 4281213986
4.9649639 -1.1139554 -1.0337079 4281281062
4.4126973 -1.0184819 -0.91566139 4281084192
4.3663802 -1.0360472 -0.90699369 4280754970
4.320015 -1.0530831 -0.89832592 4280885275
4.3020816 -1.0767186 -0.89584941 4281541924
4.2811785 -1.0994434 -0.89275378 4280687383
4.260159 -1.1219523 -0.88965815 4282462249
4.2361908 -1.1434796 -0.88594341 4282855464
4.1696825 -1.1530162 -0.87294179 4282855464
4.1540565 -1.1761794 -0.87108445 4281869599
4.1439419 -1.2008288 -0.87046528 4281214238
5.0398822 -1.4941229 -1.0692044 4286151544
3.2390943 1.070154 -0.72219002 4284569683
3.2502422 1.0517631 -0.72327989 4286018159
4.0988903 1.1618664 -0.91182643 4282663745
4.1238117 1.1416466 -0.91596794 4281940020
4.1674809 1.1262618 -0.92446887 4281808947
4.1828051 1.1029114 -0.92643064 4287137152
4.1677556 1.0716296 -0.92141724 4285951585
5.1407504 1.2885126 -1.1439676 4281801488
5.1447673 1.2560185 -1.1430957 4292984504
5.1533265 1.224653 -1.1433136 4291209894
5.0989408 1.1787082 -1.1291454 4279830277
5.1127419 1.1488987 -1.1306713 4289763973
5.1559267 1.1254228 -1.1389542 4291599994
5.1770554 1.0968027 -1.1422238 4294627511
5.2047191 1.069342 -1.1470193 4283247655
5.4150515 1.078017 -1.1934475 4281345582
5.4598956 1.0521657 -1.2021663 4280232769
5.4796801 1.0211505 -1.205218 4280035642
5.5156174 0.99287486 -1.2119751 4279968821
5.5514131 0.96419644 -1.2187322 4279378228
5.5716629 0.93253505 -1.2220019 4289441461
5.5782437 0.89848578 -1.2222198 4279835945
5.653091 0.87500405 -1.237914 4279707456
5.6786256 0.8433156 -1.2424914 4279511364
5.6856256 0.80873168 -1.2429273 4279511358
5.7030525 0.77554226 -1.2457609 4279511364
5.7164135 0.74166626 -1.2477227 4279775308
5.7382913 0.70873392 -1.2516462 4279970618
5.7425318 0.67351109 -1.2516462 4281283907
5.7455864 0.63815492 -1.2514282 4279839300
5.7493939 0.6028887 -1.2514282 4279576900
5.7636685 0.56865591 -1.2538259 4279380031
5.7563591 0.53228939 -1.2514282 4279445047
5.7682681 0.49771583 -1.25339 4279443245
5.733273 0.4592661 -1.244889 4280294953
5.6843996 0.42025444 -1.2333364 4284108368
1.8504609 0.12460531 -0.37452322 4282855205
5.7086101 0.35167062 -1.2376959 4280425761
5.707737 0.31647396 -1.2370421 4284900463
1.8553652 0.090668008 -0.37517715 4281999645
1.8578365 0.079366527 -0.37561309 4281867288
1.8602393 0.068038121 -0.37604904 4282460195
1.835259 0.055834856 -0.37038174 4282459930
1.8267863 0.044354051 -0.36842 4284628780
1.8162904 0.032942679 -0.36602229 4284168228
1.7491227 0.020946164 -0.35098216 4284038962
1.7121329 0.0099720415 -0.3426992 4280029966
1.7394886 -0.00052346196 -0.34880242 4280161811
1.7179821 -0.011072973 -0.34400702 4280490776
1.7208093 -0.021648949 -0.34466094 4280622362
1.7147894 -0.032101616 -0.34335312 4280556570
1.7165115 -0.042669937 -0.34378904 4280490266
1.7249969 -0.053467628 -0.34575081 4280424473
1.7353647 -0.064442173 -0.34814852 4280490525
5.7619762 -0.24666636 -1.2483766 4279834394
5.6774969 -0.27797681 -1.2298489 4280624423
5.70297 -0.31430626 -1.2359521 4283979866
5.6980119 -0.34911463 -1.2352983 4283584595
5.6509695 -0.38105917 -1.2252715 4284636767
