# .PCD v0.7 - Point Cloud Data file format
VERSION 0.7
FIELDS x y z rgb
SIZE 4 4 4 4
TYPE F F F U
COUNT 1 1 1 1
WIDTH 1112
HEIGHT 1
VIEWPOINT 0 0 0 1 0 0 0
POINTS 1112
DATA ascii
1.7259127 -0.064097546 -0.38828474 4280162841
5.836091 -0.24982409 -1.4087659 4279571743
5.7840376 -0.28317118 -1.3962476 4280032033
5.7773452 -0.31839001 -1.3950438 4280492322
5.7810955 -0.35418805 -1.3964883 4281544496
5.7778454 -0.38958845 -1.3962476 4280688935
5.6708031 -0.41736075 -1.3702481 4280624423
5.6632981 -0.45176336 -1.3690444 4279571994
5.7813001 -0.49686867 -1.3991364 4279111444
5.7723432 -0.53179961 -1.397692 4279242776
5.7738013 -0.56768191 -1.3988956 4279046678
5.7692442 -0.6029979 -1.3986549 4279901729
5.7606125 -0.63785285 -1.3974513 4279769890
5.7546616 -0.67296225 -1.3969698 4279705128
5.7282672 -0.70553505 -1.3914329 4279442980
5.7132421 -0.7393018 -1.3887848 4278983472
5.689362 -0.77173835 -1.38397 4279510065
5.667222 -0.80418205 -1.3796368 4285232503
5.6400976 -0.83567303 -1.3740999 4280101173
5.629108 -0.8693766 -1.3726554 4279969587
5.6112099 -0.90189999 -1.3695258 4281546299
4.8186197 -0.80503273 -1.1716406 4280162065
4.7829857 -0.82928556 -1.1639371 4281739040
4.7902265 -0.86084652 -1.1670666 4281543464
4.7991681 -0.89288211 -1.1706777 4280822059
5.4627123 -1.0508871 -1.3396746 4280758325
5.3999929 -1.0732349 -1.3254712 4279375391
5.3704858 -1.1016723 -1.3196934 4281347641
5.3113961 -1.1235675 -1.306453 4279705386
5.3195758 -1.1594404 -1.3103048 4280431942
5.3028908 -1.1899358 -1.3078973 4280498752
5.2396898 -1.2095826 -1.2936939 4292667109
5.2198915 -1.2387991 -1.2905643 4288654241
5.184845 -1.264143 -1.283583 4286943623
5.1421514 -1.28722 -1.2746757 4293127660
4.9630532 -1.2748383 -1.2308618 4279637787
4.7880611 -1.2612971 -1.1880107 4281806888
4.780232 -1.2906525 -1.1880107 4280619785
4.7722225 -1.319959 -1.1880107 4284627506
4.7789764 -1.3534442 -1.1918625 4281272836
4.7612596 -1.3800422 -1.1894552 4293577154
4.7368817 -1.4045438 -1.1853626 4291407276
4.6213508 -1.4012209 -1.1576779 4282128920
4.6460438 -1.4398861 -1.1663444 4282193938
4.7065248 -1.4903251 -1.1843996 4282194965
4.6169415 -1.4932103 -1.1634556 4286933599
4.5671368 -1.5081302 -1.1528631 4283907875
4.4888096 -1.512893 -1.1348079 4285947440
4.4656734 -1.5356762 -1.131197 4286078507
4.4470072 -1.5598378 -1.1287895 4286867247
4.4647717 -1.596894 -1.1360116 4288774989
4.4676566 -1.6289108 -1.139382 4287063603
4.4803252 -1.664739 -1.1454004 4284759816
4.4691186 -1.6918551 -1.1451596 4285812515
4.458653 -1.7192453 -1.1451596 4285288991
4.468801 -1.7547247 -1.1506965 4285160242
4.4940033 -1.7965142 -1.160326 4284178773
4.0667629 1.4834337 -1.0880948 4289303699
4.075789 1.4584527 -1.0880948 4282001185
2.9971547 1.0518914 -0.78767908 4281672982
3.0602858 1.0529948 -0.80331784 4281019167
3.1244578 1.0536714 -0.81920886 4278650118
4.0007601 1.2946194 -1.0558083 4278321664
4.0436835 1.2811497 -1.0653933 4280295965
4.0597873 1.2588927 -1.0676636 4283059013
3.9952056 1.2120533 -1.0479889 4283255365
3.9079397 1.159451 -1.0222607 4281280292
3.9688852 1.1510787 -1.0368904 4280490263
4.1173897 1.1667938 -1.0752306 4282596406
4.7446699 1.3130963 -1.242969 4284040510
4.7619796 1.2864817 -1.2454915 4280551169
4.7398405 1.2493485 -1.2374198 4287195225
4.3031745 1.1060946 -1.1178589 4288312162
4.7613859 1.1927348 -1.2391855 4289889376
4.7629738 1.1621213 -1.2376721 4292321914
4.7766056 1.134439 -1.2394377 4294560432
4.7947903 1.1077219 -1.2424647 4280353792
4.992219 1.1210957 -1.2934167 4280099886
5.0027857 1.0912675 -1.2944257 4280628816
5.044415 1.0679635 -1.3037585 4280299342
5.1854758 1.0646161 -1.3395764 4280038739
5.2194343 1.0382514 -1.3468913 4279247165
5.2608643 1.0129732 -1.3562241 4292733166
5.2869596 0.98439217 -1.361521 4280364599
3.3642957 0.60521609 -0.85073864 4282799188
5.3634744 0.93068421 -1.3786733 4280169296
5.3891268 0.90110689 -1.3839703 4280301131
5.4184394 0.87186432 -1.3902762 4280366927
5.454289 0.84333044 -1.3983479 4279774277
5.4832911 0.81339574 -1.4046538 4278718501
5.5130882 0.78327286 -1.411212 4292727510
5.5427203 0.75281477 -1.4177701 4287001195
5.5654688 0.72115242 -1.4225627 4288581512
5.5784326 0.68805522 -1.4248328 4292926424
5.5931215 0.65505111 -1.4276074 4294832360
5.6181946 0.62306517 -1.4331567 4294042846
5.64501 0.59099746 -1.4392104 4292924365
5.6697164 0.55843443 -1.4447597 4291674036
5.6923075 0.52541274 -1.4498044 4282527518
5.7108498 0.49180278 -1.4538403 4291409059
5.7436619 0.45914078 -1.4616597 4290028180
1.8504732 0.13676733 -0.44337383 4281081888
1.8512776 0.12541045 -0.44337383 4284108366
1.8413877 0.11339685 -0.4405992 4280227871
5.7280788 0.31665891 -1.4551015 4288052598
5.7763066 0.28378218 -1.4672089 4283777598
5.7721386 0.24808517 -1.4656955 4280224265
5.7793541 0.21287665 -1.4672089 4287527286
1.8246554 0.056266878 -0.43555444 4284302132
1.8143253 0.044809416 -0.43277982 4285023789
1.8174685 0.03372933 -0.43353653 4285944370
1.7595856 0.021868229 -0.41840222 4285814332
1.7248515 0.010859733 -0.40932167 4282263578
1.7171443 0.00027654599 -0.40730375 4280620563
1.7035666 -0.010175647 -0.40377241 4280687904
1.7073425 -0.020676097 -0.40478137 4280950815
1.7129885 -0.031259011 -0.40629479 4280884764
1.7166339 -0.041864365 -0.40730375 4280884511
1.7240824 -0.052634615 -0.40932167 4280556059
1.709222 -0.06267719 -0.40553808 4280162328
5.4473047 -0.23408157 -1.3809434 4279370496
5.6110373 -0.27563128 -1.4240761 4279632640
5.6961966 -0.31486741 -1.4467776 4285222474
5.5203061 -0.33912048 -1.4013747 4281474328
5.4080591 -0.36553884 -1.3726195 4280685325
5.5466099 -0.40911758 -1.4094464 4286211679
5.5565348 -0.44414642 -1.4127254 4286541155
5.5787716 -0.48039255 -1.4192836 4286212701
5.7269983 -0.52858728 -1.4588851 4284700487
5.7236471 -0.56371748 -1.4588851 4285096023
5.7200809 -0.59882647 -1.4588851 4287266681
5.7095661 -0.6331659 -1.4571193 4279766281
5.7074957 -0.66841257 -1.4576238 4278976768
5.704248 -0.70353895 -1.4578761 4280689187
5.6739135 -0.73516738 -1.4510657 4279639595
5.6395712 -0.76592898 -1.4432462 4279838265
5.6203947 -0.79847568 -1.4394627 4287995052
5.6019893 -0.83095813 -1.4359313 4279244577
5.5700088 -0.86117387 -1.4288687 4280823867
5.5436015 -0.89195132 -1.4233195 4280493096
5.0073748 -0.83718795 -1.283075 4280950815
4.8372045 -0.839266 -1.2394377 4281869858
4.8272014 -0.868074 -1.2381766 4281606940
4.8236871 -0.89803106 -1.2386811 4281150252
5.2969871 -1.0198526 -1.3658091 4279639846
5.3845863 -1.0710306 -1.3907807 4281086781
5.1276722 -1.0526583 -1.3241898 4279376934
5.2962508 -1.1211895 -1.3708539 4280429622
5.272254 -1.1499525 -1.3663136 4279048218
5.2377191 -1.1761307 -1.3589987 4289706416
5.2087188 -1.2032354 -1.3531972 4288521109
5.1720524 -1.2282398 -1.3453778 4286283383
5.0854521 -1.2406805 -1.3241898 4293257958
4.975431 -1.2462257 -1.2966958 4281021491
4.9639416 -1.2757672 -1.2956868 4282336846
4.7520394 -1.2524239 -1.2406989 4282204231
4.7573438 -1.2850921 -1.2442303 4281873712
4.6896825 -1.2977369 -1.2280871 4287196511
4.6537018 -1.3185717 -1.2205199 4285610021
4.649241 -1.3481798 -1.2215289 4284494620
4.6603627 -1.3824623 -1.2268258 4281535488
4.6499405 -1.4104699 -1.2263213 4283639064
4.6365771 -1.4375416 -1.2250602 4281600258
4.6387386 -1.4694717 -1.2280871 4283706402
4.6139836 -1.4928415 -1.223799 4282456846
4.6056557 -1.5214279 -1.2240512 4285219891
4.469698 -1.5069852 -1.1892424 4285482271
4.4420667 -1.5280854 -1.1841975 4285219095
4.4271288 -1.5533898 -1.1826842 4285942818
4.4175143 -1.5805249 -1.1826842 4285747489
4.41046 -1.6085955 -1.1834408 4285749029
4.4358802 -1.6487786 -1.1932782 4286803010
4.475451 -1.6948179 -1.2071513 4283119382
4.4830232 -1.7292131 -1.212196 4284038172
4.4849381 -1.7616417 -1.2157273 4284630056
4.4893179 -1.7952371 -1.2200154 4287993478
4.0058813 1.5183139 -1.128266 4280424984
4.0295877 1.499092 -1.1324772 4287990655
4.0051823 1.4620889 -1.1227388 4283119141
2.9215508 1.0459011 -0.80610973 4280816386
4.0237331 1.4131489 -1.1230021 4284567355
3.1922886 1.0989281 -0.88059521 4281412898
4.0508256 1.3670611 -1.1258972 4282400820
4.0453997 1.3376333 -1.1219492 4282664253
4.0581198 1.3142735 -1.1232651 4282070836
4.0697851 1.2905159 -1.124318 4280887591
3.8178184 1.1848083 -1.0500957 4281150763
3.8508618 1.1692158 -1.0574653 4281676848
3.9291692 1.1667314 -1.0777316 4280228636
4.1270967 1.1980567 -1.1319507 4281016607
4.2336721 1.200907 -1.1601131 4282330663
4.6425714 1.2862835 -1.2738154 4283642662
4.6587577 1.260042 -1.2761842 4284299814
4.5348835 1.1966919 -1.239073 4283115792
4.6374335 1.1933912 -1.2659193 4288706908
4.6474762 1.1656188 -1.266709 4290087779
4.6657863 1.1398306 -1.2698674 4294956478
4.6726923 1.1111803 -1.2698674 4281210136
4.9190888 1.1379918 -1.3369832 4279967780
4.9636264 1.116263 -1.3475113 4279771694
4.9920588 1.0905262 -1.3535649 4284312187
4.9995999 1.0600753 -1.3538281 4282008919
4.9946709 1.0270441 -1.3506696 4285823359
4.9970942 0.99562311 -1.3496169 4286480000
4.9548001 0.95561385 -1.3361937 4282731102
5.1881733 0.96769863 -1.3993616 4280628309
5.2642703 0.9485212 -1.4188384 4281090901
5.303257 0.92199314 -1.4280503 4279906373
5.328794 0.89278764 -1.4335775 4280037702
5.3608394 0.8643797 -1.4409471 4280235592
5.392736 0.83561194 -1.4483167 4280037448
5.4177999 0.80549067 -1.4538438 4280235081
5.4436526 0.77522939 -1.4596343 4282729807
5.4655128 0.74415958 -1.4643719 4282529846
5.4967628 0.71409547 -1.4717414 4279375393
5.5192318 0.68260831 -1.4767423 4281151804
5.5376883 0.65042114 -1.4806902 4280625199
5.5981445 0.62273496 -1.496219 4280230703
5.593225 0.58746493 -1.4938502 4279834654
5.6120849 0.55465585 -1.4980614 4286346092
5.6144218 0.5201211 -1.4977982 4280819480
5.6030908 0.48441237 -1.4938502 4280227355
1.8623253 0.14871509 -0.46921426 4284698446
1.8603164 0.1370708 -0.46842468 4284566599
1.8630474 0.12578471 -0.46895111 4285492851
5.6315861 0.34789377 -1.4988511 4280621337
5.6153135 0.31231073 -1.4938502 4281411368
5.6306138 0.27852002 -1.497535 4281608495
5.6061931 0.24283333 -1.4904286 4281476396
5.452363 0.20262812 -1.4480535 4280226064
1.8230226 0.055770513 -0.4571071 4285023025
1.8146504 0.04436579 -0.45473829 4285481515
1.7994555 0.032937925 -0.4505271 4286007599
1.7292035 0.020993412 -0.43131354 4285418295
1.7235113 0.010344149 -0.42973435 4282263068
1.7196835 -0.00023341709 -0.42868155 4280817942
1.7119317 -0.010742045 -0.42657596 4280557340
1.7070104 -0.021189496 -0.42525995 4280818969
1.7174586 -0.031852663 -0.42815515 4281015578
1.7374846 -0.04287634 -0.43368232 4280819228
1.7391173 -0.053594667 -0.43420872 4280490777
1.7788115 -0.076650016 -0.44526312 4279703067
1.7898709 -0.088124901 -0.44842151 4280887601
5.2957072 -0.29102013 -1.4064679 4282002476
5.3082657 -0.324388 -1.4104159 4283121471
5.2859616 -0.35559744 -1.4048887 4281741611
5.3519936 -0.39302644 -1.4235759 4284173893
5.3946824 -0.42944664 -1.4359463 4282529068
5.4169374 -0.46467817 -1.4427896 4281609507
5.4370418 -0.50002259 -1.4491063 4279965715
5.5826941 -0.54795003 -1.4899023 4279834644
5.5782666 -0.58209455 -1.489639 4279769623
5.5602064 -0.61472404 -1.4856911 4279375381
5.5572882 -0.64894092 -1.4859543 4279508250
5.5599046 -0.68385059 -1.4877967 4279442206
5.5670857 -0.71943402 -1.490955 4279640359
5.5568304 -0.75280356 -1.4893758 4279311910
5.5635695 -0.78850758 -1.4925342 4280034089
4.6987329 -0.69555634 -1.2553914 4280889400
5.5353575 -0.85393089 -1.4875335 4280296745
5.5023894 -0.88344973 -1.4799006 4279967004
4.8649898 -0.81189835 -1.3051361 4281018401
4.8323483 -0.8369661 -1.2975034 4281871392
4.8271222 -0.86660105 -1.2975034 4281477150
4.8463755 -0.9007811 -1.3043466 4280294167
5.2832122 -1.0154417 -1.4272608 4279704346
5.1084394 -1.0144298 -1.3804111 4278716424
5.2051387 -1.0668468 -1.4090999 4278584838
5.1361952 -1.0856116 -1.3917288 4280229150
5.1171827 -1.1144402 -1.3883072 4281936680
4.9417348 -1.1080732 -1.3411945 4293187537
4.7731447 -1.1011131 -1.2959241 4281280292
4.880827 -1.1575124 -1.3280345 4283584077
4.9561219 -1.2075166 -1.3511961 4279901211
4.9626589 -1.2414125 -1.355144 4279705891
4.9708347 -1.2759134 -1.3596184 4279311908
4.9255915 -1.296575 -1.3490905 4279642673
4.9054337 -1.3235092 -1.3456688 4278786326
4.8321252 -1.3356073 -1.3272449 4289508772
4.5518351 -1.2883183 -1.2501274 4289104758
4.5382838 -1.3146144 -1.2485482 4291333223
4.5366077 -1.3443531 -1.2503906 4291661410
4.5495105 -1.3785934 -1.2564442 4291595877
4.5382009 -1.4056271 -1.2556546 4291530335
4.5138535 -1.4285021 -1.2511802 4290806866
4.5196919 -1.4609157 -1.2553914 4290874466
4.511559 -1.4889226 -1.2556546 4286467137
4.4941096 -1.5138074 -1.2532858 4284362523
4.4445887 -1.527567 -1.2417051 4285811762
4.4205642 -1.5497068 -1.2374939 4284233249
4.4155149 -1.5784242 -1.2388098 4284036642
4.403934 -1.6048275 -1.2382834 4283709993
4.4500813 -1.652629 -1.2546018 4283053862
4.4479785 -1.6829737 -1.2569706 4282264596
4.4915857 -1.7310373 -1.2727625 4282460431
4.4808793 -1.7585645 -1.2727625 4284036379
4.4753809 -1.788172 -1.2743417 4284761117
4.4884553 -1.8254058 -1.2814481 4285754450
4.0518441 1.5638903 -1.1989555 4291021243
2.7655685 1.0481069 -0.80345476 4290556592
2.7719474 1.0311179 -0.80345476 4284108352
2.7782221 1.0140902 -0.80345476 4285949006
4.0048056 1.4338454 -1.1734306 4284566072
4.0126209 1.4089268 -1.173156 4280883214
3.1901271 1.0982733 -0.92229712 4281080587
3.9968066 1.3485157 -1.1632755 4285616694
3.958441 1.3085779 -1.1492778 4284695849
4.0075645 1.2975905 -1.1616286 4284040760
4.015451 1.2729762 -1.1616286 4282924596
3.7586784 1.1662689 -1.0825834 4280490253
4.1733952 1.2668864 -1.2041703 4282857271
4.37468 1.2987081 -1.2618076 4286280814
4.2772856 1.2412977 -1.2305188 4281080082
4.4763265 1.2693158 -1.2873325 4283379755
4.5183196 1.2513188 -1.2974877 4281140992
4.524056 1.2230695 -1.2969388 4285614134
4.5333352 1.1957779 -1.2974877 4286470462
4.5405874 1.1679394 -1.2974877 4289166677
4.5588608 1.1428617 -1.3007812 4288314707
4.5816684 1.1187441 -1.3054471 4281475878
4.8588214 1.1548514 -1.3847668 4280165937
4.8957968 1.1319458 -1.3935497 4279773240
4.900774 1.1014628 -1.3930007 4281218375
4.8548284 1.0598899 -1.3776308 4291350222
4.8508925 1.0278895 -1.3746117 4287268987
4.7563214 0.97740275 -1.3452442 4288583305
4.7810917 0.95195413 -1.3507335 4288647556
4.7934518 0.92387336 -1.3526547 4287200625
4.789577 0.89268273 -1.3499101 4285822319
4.7892861 0.86225581 -1.3482633 4279836722
4.7793279 0.83022106 -1.343872 4279376676
4.781487 0.80040401 -1.3430486 4279706926
5.3208036 0.8571111 -1.497571 4280496446
5.3478189 0.82782894 -1.5038837 4280366147
5.3765769 0.79852968 -1.5107453 4280627000
5.4042239 0.76877326 -1.5173323 4285494908
5.4298019 0.73844844 -1.5233705 4279969589
5.4628391 0.70882797 -1.5316044 4279773760
5.4604053 0.67447054 -1.5296832 4279839551
5.4682612 0.64140129 -1.530781 4279443505
5.355495 0.59489316 -1.4972966 4280167998
5.0042353 0.5248369 -1.3954709 4282596153
4.9556851 0.48902628 -1.3806499 4282265645
4.8944387 0.45268112 -1.3622609 4279175443
1.8773729 0.16226362 -0.49715436 4284833884
1.8572457 0.14905322 -0.49111617 4279308048
4.7947021 0.32502398 -1.3309722 4284109138
4.8090839 0.29636604 -1.3345401 4281150256
5.4454546 0.30200469 -1.5159601 4280427820
5.4798603 0.27019411 -1.5252918 4280428095
5.3584447 0.2312668 -1.4901606 4281219405
5.236762 0.19383982 -1.4550294 4280624431
1.8257987 0.056618098 -0.4806866 4286078821
1.8318796 0.045556363 -0.48233336 4284035619
1.8657748 0.03493847 -0.49193954 4285482798
1.7361484 0.021882432 -0.45488709 4285681208
1.7535583 0.011337308 -0.45982742 4282591004
1.7353245 0.00057546957 -0.45461261 4280621588
1.7170254 -0.0099621806 -0.44939783 4281016095
1.7092396 -0.020403899 -0.44720212 4280950555
1.7023524 -0.030768048 -0.44528088 4281147418
1.7127059 -0.04147134 -0.44829997 4280557337
1.7306809 -0.052537974 -0.45351478 4280294167
5.2096171 -0.2229425 -1.4476188 4278916885
5.2263994 -0.25579843 -1.4528337 4280429613
1.79608 -0.098703146 -0.47272718 4278518532
5.1556811 -0.31579483 -1.4336212 4281151027
5.2025766 -0.35072574 -1.4476188 4281940030
5.1897779 -0.38186461 -1.4445997 4281810235
5.2275958 -0.41691503 -1.4561272 4282858550
5.3552361 -0.46018922 -1.4934541 4281344284
5.360929 -0.49383417 -1.4959242 4280622879
5.353013 -0.52624816 -1.4945519 4280952098
5.3831568 -0.5625844 -1.5041581 4280689183
5.4025416 -0.59814548 -1.5107453 4280229404
5.3538809 -0.6260314 -1.4978455 4278979594
5.2726345 -0.64934433 -1.4756141 4279111691
5.4144578 -0.70057374 -1.5176069 4278716424
5.391952 -0.73132622 -1.512392 4279439636
5.3778429 -0.76304531 -1.5096474 4280295458
5.406352 -0.80096352 -1.5192536 4282992969
5.3984847 -0.83368069 -1.5184302 4278321920
5.426497 -0.87213236 -1.5280364 4291413436
4.8823242 -0.81539756 -1.3721416 4281147415
4.8393307 -0.83876789 -1.361163 4282331177
4.8303075 -0.86776525 -1.3600652 4280290826
4.824892 -0.89738709 -1.3600652 4281016607
4.8136292 -0.9258849 -1.3584185 4282006326
4.8163457 -0.95709091 -1.3608886 4281677360
4.8160343 -0.98778504 -1.3625354 4281478952
4.8042383 -1.0161228 -1.3608886 4280756258
5.1774831 -1.1283307 -1.4717716 4279506704
5.0409832 -1.1310173 -1.4338957 4280558880
4.9290104 -1.1376969 -1.4031558 4278781704
4.9687171 -1.1790235 -1.4168789 4279571220
4.9894156 -1.2163235 -1.4251128 4279834394
4.9902539 -1.249017 -1.4275831 4279507229
4.9554868 -1.2726743 -1.4196236 4279377187
4.917829 -1.2952174 -1.4108409 4280957762
4.8745112 -1.3158424 -1.4004112 4289184960
4.815372 -1.3316269 -1.3853158 4286685598
4.7756538 -1.3522385 -1.3759841 4286485136
4.4569454 -1.291561 -1.2837646 4281607715
4.4452486 -1.3177905 -1.2826667 4282588693
4.4343185 -1.3442041 -1.2818433 4281403136
4.420476 -1.3696791 -1.2801965 4283376143
4.4138222 -1.3973575 -1.2807455 4289689436
4.4115696 -1.4264855 -1.2826667 4292189823
4.4036469 -1.4538291 -1.2829412 4291663992
4.4046669 -1.4842005 -1.2859603 4286401069
4.397296 -1.5118244 -1.2865092 4283113234
4.4006405 -1.5432333 -1.2903516 4281340934
4.4580894 -1.5941712 -1.3106619 4281476119
4.435576 -1.616884 -1.3068194 4282923038
4.4165578 -1.6407202 -1.3040748 4284105757
4.4118032 -1.6698318 -1.3057216 4284828189
4.4185214 -1.703444 -1.3109363 4285288231
4.4795909 -1.7586415 -1.3328934 4283904787
4.4696083 -1.7864516 -1.3331679 4284366357
4.4674697 -1.8174675 -1.3359125 4284303134
4.5033212 -1.8643433 -1.350459 4285163348
2.7403915 1.0575472 -0.83312386 4288191376
2.7566864 1.044452 -0.83626091 4283451702
2.7450788 1.0208288 -0.83055723 4282790425
3.9936581 1.4578781 -1.2241147 4283118108
3.9935055 1.4301122 -1.2212628 4285488714
3.118768 1.0950428 -0.94263554 4281739293
3.9491348 1.359762 -1.2018701 4284038697
3.9465072 1.3318242 -1.1984478 4283970839
3.9600644 1.3093908 -1.200159 4284103462
3.9069362 1.2652649 -1.1810515 4283316259
3.7620618 1.1928449 -1.1334254 4283250977
4.0905876 1.2695463 -1.2335258 4282591766
4.2037611 1.2764769 -1.2663223 4281013007
4.4173121 1.3118329 -1.330204 4282527529
4.1887355 1.2159683 -1.256911 4281210891
4.4008074 1.2483639 -1.3202225 4283512105
4.4240856 1.2256919 -1.3250706 4284102182
4.4315233 1.1985232 -1.3250706 4285679663
4.446207 1.1732676 -1.3273522 4286861879
4.4598198 1.1476377 -1.3293484 4288442194
4.5067511 1.1302873 -1.3416115 4281736470
4.7696362 1.1652274 -1.4200377 4280164650
4.8093305 1.1437086 -1.4300194 4279838504
4.783576 1.1066089 -1.4200377 4287600524
4.6696525 1.0500805 -1.3832487 4283980624
4.7378063 1.0349231 -1.402071 4286940541
3.2223725 0.6828205 -0.93921328 4286873716
4.7933335 0.98559523 -1.4151896 4287135097
4.7936511 0.95504034 -1.4134785 4289108368
4.7928333 0.92433697 -1.4114822 4287332211
4.7984152 0.89491129 -1.4114822 4289042314
4.7868371 0.86238891 -1.4063488 4288581249
4.7825961 0.83135742 -1.403497 4294568150
4.7630301 0.7978732 -1.3960822 4290752932
4.7621593 0.76771617 -1.394371 4286412917
5.3066483 0.82225364 -1.5569273 4281546814
5.3229694 0.79137111 -1.5603496 4284309607
5.3438559 0.76099575 -1.5651977 4279704099
5.3075886 0.72262317 -1.5529348 4279771961
1.8608068 0.24095979 -0.51742238 4293908688
5.2665944 0.65130848 -1.538105 4280102189
5.2343192 0.61472476 -1.5272679 4282335290
4.8474369 0.53906858 -1.4103415 4280885014
4.8153844 0.50560337 -1.3997896 4285420362
4.7344613 0.4677341 -1.3746932 4281604117
1.8598256 0.17150787 -0.51485568 4284103979
1.851294 0.15926541 -0.51200384 4284958259
4.6878119 0.3761259 -1.3584375 4279635214
4.710104 0.34884661 -1.3644264 4278846721
4.7188497 0.32039553 -1.3664228 4278452224
4.7264667 0.29179096 -1.3681338 4279372814
4.7281675 0.26278439 -1.3681338 4279308563
4.728734 0.23372042 -1.3678486 4279508007
5.133214 0.22224723 -1.4879122 4290499790
1.8530476 0.068091676 -0.51086307 4282788129
1.8246903 0.055822611 -0.50230747 4290948003
1.822124 0.044553332 -0.50145191 4283577118
1.8214048 0.033353984 -0.50116676 4285485105
1.7611964 0.021403497 -0.48320004 4285025583
1.7296658 0.010385269 -0.47378889 4281870101
1.7038182 -0.00024207018 -0.46608886 4280818453
1.7057016 -0.010707214 -0.46665922 4281016097
1.7142293 -0.021274151 -0.46922591 4280885021
1.7063999 -0.03165511 -0.46694437 4280951066
1.7013826 -0.042009789 -0.46551844 4280753435
1.7432464 -0.053719137 -0.47806665 4280753176
1.7390527 -0.064275458 -0.47692594 4281015832
1.7750146 -0.07648892 -0.48776302 4283121208
1.8290806 -0.090029716 -0.5040186 4283974462
1.8667753 -0.10334629 -0.5154261 4284959047
1.8957636 -0.11660448 -0.52426684 4284103740
1.8950125 -0.12823448 -0.52426684 4284894537
1.8932341 -0.13978966 -0.52398169 4284763463
1.8923408 -0.1514037 -0.52398169 4283184429
1.8894662 -0.16284859 -0.52341127 4282790439
1.8912948 -0.17470179 -0.52426684 4282199077
1.8901873 -0.18630327 -0.52426684 4280291855
5.3018823 -0.55331206 -1.5452347 4279439120
5.2850494 -0.58436155 -1.5412421 4279112211
1.8788215 -0.22017612 -0.52198535 4280294427
5.2572379 -0.67945814 -1.5363939 4279900959
5.2966619 -0.71761292 -1.5495125 4280032546
5.302598 -0.75157636 -1.5526495 4280032033
5.2590108 -0.77835345 -1.5409569 4279572764
4.7009149 -0.72538137 -1.3744079 4286875787
4.8818665 -0.78395402 -1.4303045 4280359190
4.851438 -0.80964005 -1.4226044 4287133552
4.8426008 -0.83873922 -1.4214637 4282725169
4.8298159 -0.86708397 -1.4191822 4281738790
4.8310008 -0.89792734 -1.4211786 4280557597
5.2405066 -1.0072432 -1.5469458 4280295717
5.2069635 -1.0339717 -1.5386754 4280296744
5.0662451 -1.038411 -1.4978937 4280494377
5.141366 -1.0867032 -1.522705 4281021751
5.027833 -1.0950022 -1.4901937 4279968296
5.00699 -1.1226894 -1.4859159 4279835167
4.9831953 -1.1495165 -1.4807825 4282399292
4.8753214 -1.1562082 -1.4499824 4283910470
4.9743013 -1.2119414 -1.4824936 4279963660
4.948174 -1.2377926 -1.47679 4279309588
4.8857083 -1.2540838 -1.4599639 4284311913
4.8603091 -1.2794067 -1.4545454 4278194710
4.8070211 -1.2969813 -1.4405712 4286222214
4.7694077 -1.318288 -1.4314452 4286687382
4.7123466 -1.3337055 -1.4163303 4288200383
4.6552782 -1.348473 -1.4012154 4278390282
4.3491478 -1.2888528 -1.308815 4281740069
4.3218932 -1.3096821 -1.3028262 4282328091
4.3055353 -1.3336259 -1.3002595 4285942597
4.3054962 -1.3626198 -1.3028262 4286600526
4.3043509 -1.3913687 -1.3051076 4283838503
4.2930017 -1.4168531 -1.304252 4283576356
4.2924027 -1.4459194 -1.3068187 4284036391
4.2970476 -1.4768994 -1.3110965 4282984734
4.2888093 -1.5035546 -1.3113817 4282525210
4.3038735 -1.538547 -1.3190818 4282460706
4.4177375 -1.6098539 -1.3581523 4282723352
4.400588 -1.6342626 -1.3558708 4283447577
4.3940639 -1.6625892 -1.3570116 4284237594
4.4043517 -1.6974419 -1.3635708 4285026087
4.4634533 -1.7517302 -1.3858154 4281473280
4.4641924 -1.7837048 -1.3895228 4283972631
4.4691467 -1.8175585 -1.3946562 4283908896
4.4809389 -1.8544706 -1.402071 4283192640
3.9917784 1.5972661 -1.293119 4291940039
4.0023932 1.5730921 -1.2934153 4281805084
2.6210604 1.0117971 -0.83077407 4284698438
2.6781278 1.0149814 -0.8476674 4282197526
4.0423079 1.5034819 -1.2972682 4285883484
4.0353069 1.4727581 -1.2919334 4279304192
4.0415702 1.4470043 -1.2910444 4284042310
3.0753121 1.0799111 -0.97036666 4281343759
3.9262688 1.3516127 -1.2474772 4283052835
3.9480629 1.3320748 -1.2519228 4283182879
3.4220362 1.1313089 -1.077358 4283314976
3.9532082 1.2799962 -1.2483664 4283053598
4.053853 1.2851465 -1.2785966 4282855458
4.2039647 1.3043877 -1.324831 4281933335
4.3060226 1.3071343 -1.3553576 4282657572
4.3121314 1.2801449 -1.3547649 4282133022
4.1804824 1.213214 -1.309716 4282132260
4.3073006 1.2214017 -1.3482447 4282985508
4.3294415 1.1990268 -1.3529867 4284101925
4.3321071 1.1711935 -1.3515048 4285349680
4.3539877 1.1484864 -1.3562468 4285021231
4.4072018 1.1336414 -1.3710655 4281932311
4.6836638 1.1741378 -1.4573107 4279438102
4.7186151 1.1521716 -1.4662019 4287532694
4.7571888 1.1307036 -1.4762787 4279570191
4.7873006 1.1068695 -1.483688 4279833624
4.6421118 1.0433488 -1.4353789 4283320394
4.5597811 0.99550015 -1.4072233 4286149752
4.7657523 1.0098554 -1.4706476 4285032041
4.7877631 0.98386127 -1.4756858 4283716954
4.7337613 0.94253421 -1.4567178 4290822865
4.6822476 0.90244943 -1.438639 4289375680
4.6642241 0.86932969 -1.4312297 4287532961
4.6704106 0.84086341 -1.4315261 4283846748
4.7112398 0.81839901 -1.4427882 4286873727
4.7745752 0.79924762 -1.4611635 4288714640
4.789762 0.77160633 -1.4644237 4288975243
4.7755289 0.73928165 -1.4584961 4285554769
4.6174836 0.68584418 -1.4075197 4279174657
5.2002892 0.73977727 -1.5889012 4278717715
5.2113547 0.70875555 -1.5909758 4279773750
5.1976099 0.6744321 -1.5853446 4280234301
5.1817451 0.6400702 -1.5791208 4282468937
4.8867731 0.57323682 -1.4857626 4284240203
4.7952743 0.532704 -1.4561251 4287196522
4.7443104 0.49759647 -1.4392318 4280880910
4.7368193 0.46744573 -1.4359716 4280424219
1.8504002 0.17138262 -0.53558463 4282597949
4.7117491 0.40665698 -1.4264877 4279635988
4.6989231 0.37651926 -1.4217457 4279373327
4.6725712 0.34556925 -1.4128544 4279504913
4.6755562 0.31695688 -1.4131508 4279241487
4.7327027 0.29166508 -1.4303405 4279373075
1.8602225 0.1034225 -0.53706652 4280296236
1.8779926 0.092851855 -0.54240125 4279641135
4.9586406 0.21404037 -1.4990995 4292404450
1.8331784 0.068106629 -0.52817529 4280560437
1.8440626 0.057180595 -0.53143543 4281347883
1.8310118 0.045534961 -0.52728617 4282592795
1.8092937 0.033892497 -0.52046955 4284103201
1.7875028 0.022518281 -0.51365292 4284891179
1.7685063 0.011430658 -0.50772542 4281736470
1.7599474 0.00057815551 -0.50505805 4281081114
1.7503673 -0.010163129 -0.50209427 4280753689
1.739767 -0.020775214 -0.49883422 4280885275
1.7415166 -0.031484783 -0.49942693 4281082143
1.7422454 -0.042193267 -0.49972335 4280885275
1.7534093 -0.053233001 -0.50327981 4280753178
1.7540039 -0.064025767 -0.50357616 4280885024
4.9482241 -0.21173696 -1.4958394 4294443007
4.9649563 -0.24298313 -1.5014706 4292599260
4.9624186 -0.27339035 -1.5011741 4290428342
4.9482546 -0.303074 -1.4973212 4285823598
4.90628 -0.33072922 -1.4848735 4294245100
4.8822513 -0.3592138 -1.4780569 4293785583
4.9504061 -0.39478788 -1.4999887 4282075719
5.0792055 -0.43644929 -1.5408884 4280693037
5.0849915 -0.46839559 -1.5435557 4284899161
5.1285958 -0.50416964 -1.5580782 4282595378
5.1339545 -0.53652269 -1.5607455 4281545521
5.1391091 -0.56896049 -1.5634129 4278784275
5.1260347 -0.5993728 -1.5604491 4278388490
5.1402712 -0.63303363 -1.5660802 4278454533
5.0292602 -0.65070558 -1.5325899 4283715916
5.0885816 -0.69015712 -1.552447 4280163611
5.1598983 -0.73210597 -1.576157 4280230694
5.1042924 -0.75619078 -1.5601528 4279572513
4.9815726 -0.76926732 -1.5231059 4279376672
4.8419151 -0.77813774 -1.4807242 4281149738
4.9124107 -0.82042468 -1.5044342 4280752923
4.8423529 -0.83929187 -1.4839844 4280555546
4.8653121 -0.8740567 -1.4928757 4280425250
4.8776979 -0.90721279 -1.4985068 4279965212
4.8964243 -0.94181699 -1.5062125 4279966753
5.0872684 -1.0109501 -1.5684513 4279903008
4.9883471 -1.0231411 -1.5391101 4280890673
5.0118761 -1.0600563 -1.5485941 4279245339
5.0062103 -1.090992 -1.5488905 4279245340
5.0078087 -1.1235715 -1.5515579 4279179034
5.012918 -1.157071 -1.5554107 4279309592
4.9889975 -1.1838375 -1.550076 4281215782
4.7932796 -1.1684936 -1.4899119 4281477412
4.8981233 -1.2259501 -1.5257733 4279966491
4.8766332 -1.2524167 -1.5213276 4279771170
4.8291435 -1.2718531 -1.5085835 4287403672
4.7852888 -1.2917501 -1.4970249 4287601559
4.7367706 -1.309884 -1.4839844 4287212709
4.6652384 -1.3209649 -1.4635345 4287083192
4.6258569 -1.3405247 -1.4534578 4292343032
4.5800028 -1.3577504 -1.4413064 4279968550
4.2672315 -1.2935386 -1.3426136 4281543211
4.2391443 -1.313477 -1.3360933 4283248682
4.2246313 -1.3374449 -1.3340187 4283182627
4.230885 -1.3680443 -1.3387607 4283182113
4.2124352 -1.3906844 -1.3355006 4283247393
4.2038231 -1.4165051 -1.3355006 4283050527
4.2040834 -1.4453787 -1.3384643 4283248421
4.19063 -1.4695666 -1.3369825 4282590491
4.1824331 -1.4955738 -1.3372788 4282919458
4.2009935 -1.5313509 -1.3464664 4285615939
4.3723612 -1.6242976 -1.4063342 4284036642
4.3962541 -1.6639451 -1.4175965 4283512858
4.4322996 -1.7087573 -1.433008 4284038940
4.4928503 -1.7638484 -1.4567178 4282459656
4.5076609 -1.8016645 -1.4653127 4284235290
4.497406 -1.829649 -1.4656092 4284302364
4.4808006 -1.8550177 -1.4638309 4283717184
3.963788 1.614688 -1.3378606 4294241767
3.9603674 1.5850276 -1.3332602 4282199326
2.5820918 1.0146343 -0.85267353 4281805084
2.5873809 0.9984287 -0.85236681 4282593824
4.0155697 1.5219892 -1.342461 4282000656
3.9588258 1.4727449 -1.3197658 4281935641
3.9642119 1.4471197 -1.318539 4281870881
2.7553596 0.98633462 -0.90174425 4283515712
3.9655087 1.3926823 -1.3130186 4281672730
3.9316854 1.3537483 -1.298604 4282330401
3.3655005 1.1355704 -1.1032411 4282790692
4.0356517 1.3344073 -1.3283532 4282395935
4.1288733 1.3372096 -1.3571823 4281738264
4.1859903 1.3273991 -1.3737437 4281474328
4.2240515 1.3110079 -1.3838644 4282985769
4.2338376 1.2856185 -1.3844779 4282263329
4.2370844 1.2582599 -1.3829443 4281145878
4.1149368 1.1945233 -1.3393941 4281738791
4.2457972 1.2043498 -1.3807975 4281670680
4.2641129 1.1813276 -1.3844779 4282788133
4.2593379 1.1519078 -1.3804908 4282458655
4.2470007 1.1206466 -1.3740503 4284436303
4.5690241 1.175769 -1.4789391 4279176462
4.6149254 1.1574463 -1.4918201 4279309850
3.0871663 0.7537728 -0.98271108 4285756283
4.7213745 1.1227696 -1.5224893 4279901476
4.7318845 1.0946378 -1.5237161 4278980885
4.5982981 1.0340164 -1.4774055 4279439634
4.5431867 0.99236143 -1.4571639 4288123016
4.4756365 0.94885278 -1.4329352 4284504650
4.4375582 0.91235262 -1.4185207 4283913283
4.4458728 0.88566577 -1.4194407 4286479471
4.4493546 0.85800874 -1.4188274 4287334778
4.4592137 0.8315655 -1.4203608 4289179554
4.5635204 0.82210106 -1.4528702 4294769387
4.6509972 0.80844897 -1.4798591 4294967288
4.6539931 0.77958083 -1.4792458 4283916894
4.6596289 0.75116146 -1.4795524 4284376413
4.7149396 0.73043758 -1.4961138 4283716431
4.7400446 0.70457727 -1.502861 4285818972
4.5501699 0.64779449 -1.4396825 4291413695
5.0897284 0.69291323 -1.6138836 4280955191
5.0759516 0.65933657 -1.6080564 4279837227
5.0657325 0.62642336 -1.603456 4282267967
4.8832593 0.57341677 -1.5430377 4287199093
4.8365498 0.53785527 -1.526783 4281146137
4.8340797 0.50757086 -1.5249429 4279765513
1.7957258 0.17667544 -0.5401541 4285093194
4.6513457 0.43069971 -1.4639111 4279242766
4.6131263 0.39861774 -1.4507234 4280492322
4.7815142 0.38366762 -1.5043945 4279242255
4.8881898 0.36208066 -1.5381306 4279175948
4.8846221 0.33169222 -1.5362905 4279044876
4.7117677 0.29087988 -1.4798591 4279045389
4.7163148 0.26212269 -1.4807792 4279045641
4.6978707 0.23218735 -1.4743387 4279572511
4.8741746 0.21097271 -1.5307701 4279900708
4.8696704 0.18084805 -1.5289298 4290882988
1.8244824 0.055816114 -0.54690135 4281939254
1.8276452 0.044691876 -0.54782152 4283512355
1.8021907 0.032989774 -0.53954077 4285681970
1.7719039 0.021540742 -0.52972662 4285616177
1.7444009 0.010483721 -0.52083254 4281934614
1.7349141 -0.00022511004 -0.51776564 4280753174
1.7386873 -0.010891624 -0.51899242 4280688407
1.7328773 -0.021492837 -0.51715219 4281214238
1.7279545 -0.032040164 -0.5156188 4281476129
1.7258223 -0.042596411 -0.51500535 4280950814
1.7331394 -0.053414475 -0.51745892 4280884509
4.8819098 -0.2083191 -1.5332235 4289507764
4.8786383 -0.23817766 -1.5326102 4283324765
4.8742342 -0.26795191 -1.5316901 4290892241
4.8620477 -0.29721823 -1.5283165 4289511615
4.8591833 -0.32698196 -1.5280098 4289643200
1.8137324 -0.13396885 -0.54475451 4290035389
4.8889618 -0.38929865 -1.5390507 4287344044
4.8883781 -0.41945174 -1.5396641 4288659906
4.8364253 -0.44491628 -1.5237161 4288133036
4.8646822 -0.50778234 -1.534757 4280296483
4.8340387 -0.53459448 -1.5258629 4290035651
4.8391767 -0.56523722 -1.5286232 4288790714
4.8299489 -0.59422326 -1.526783 4290498500
4.8649154 -0.62884152 -1.5393574 4289244836
4.9175577 -0.66633511 -1.5577589 4281214238
4.9859433 -0.70676529 -1.5813743 4280295454
5.001286 -0.74026728 -1.5878148 4280626739
4.9853611 -0.76920158 -1.5841345 4278783508
4.8066835 -0.77189904 -1.5273964 4289244084
4.8685164 -0.81248599 -1.5491716 4281282102
4.8615637 -0.84201884 -1.5485581 4279901989
4.8553681 -0.87166506 -1.5482515 4280034604
4.8583512 -0.90300399 -1.5510117 4279574061
4.8611317 -0.9344123 -1.553772 4279045916
4.8907843 -0.97125888 -1.5654262 4281545766
4.9556003 -1.0157586 -1.5887349 4285490531
4.9855938 -1.0538148 -1.6006958 4285095514
4.9836845 -1.0853976 -1.6022294 4285029719
5.0122252 -1.1238618 -1.6138836 4279700748
4.9876122 -1.1505343 -1.6080564 4278583809
4.961009 -1.1765082 -1.6016159 4278978307
4.9028325 -1.1945459 -1.5847478 4280820769
4.7125754 -1.1789149 -1.5240228 4280098336
4.8223438 -1.2378349 -1.5629727 4279968033
4.7870426 -1.2601384 -1.553772 4279309588
4.7424603 -1.2795784 -1.5415043 4288065964
4.6941509 -1.2975057 -1.5280098 4286229415
4.6338949 -1.3115221 -1.5105283 4287411639
4.5827889 -1.3274943 -1.4961138 4287014565
4.5161476 -1.3382957 -1.4764855 4281286463
4.45046 -1.3486056 -1.4571639 4280560687
4.1456804 -1.2841569 -1.3571823 4281279267
4.1350007 -1.3087093 -1.3562622 4280684297
4.1287036 -1.3346416 -1.3568755 4282063371
4.1258602 -1.3617383 -1.3587157 4282721307
4.1093087 -1.3842958 -1.3559555 4283378979
4.1097398 -1.4125755 -1.3590224 4283248169
4.1162658 -1.443115 -1.3642361 4283182628
4.0983701 -1.4651431 -1.3611692 4283049498
4.0875144 -1.4896114 -1.3605559 4283969572
4.0782976 -1.5146637 -1.3605559 4288246371
4.3324552 -1.6392961 -1.4513367 4286999125
4.4324541 -1.7082647 -1.4893665 4284433447
4.4697385 -1.7541953 -1.5059279 4284302627
4.4721498 -1.786882 -1.5105283 4283906588
4.4752102 -1.8200228 -1.5154355 4284363289
4.4745131 -1.8518131 -1.5191157 4284369972
2.6619561 -1.1213647 -0.88947654 4283455814
2.6699007 -1.144044 -0.89469039 4286151795
2.6628306 -1.1604047 -0.89469039 4281741095
3.9429216 1.6050578 -1.3854063 4281736710
2.4930046 0.99720252 -0.85849196 4282199326
3.9773242 1.5624435 -1.3908089 4282789912
4.0107217 1.5472214 -1.3993895 4282132234
3.9678233 1.5027741 -1.3806393 4282790425
3.9316428 1.4615545 -1.3644314 4283250212
3.9271746 1.4325303 -1.3596644 4286276954
2.7654917 0.9897176 -0.94302708 4283120948
2.7768805 0.97461361 -0.94493389 4281672730
3.207799 1.1037319 -1.0955716 4282396456
4.0932245 1.3802445 -1.4063811 4282198566
4.1016164 1.3551029 -1.4063811 4279568386
4.1179729 1.3325369 -1.4092414 4281475100
4.1342072 1.309821 -1.4121016 4281409307
4.1503167 1.286956 -1.4149618 4279633152
4.1345444 1.2543112 -1.4066989 4282791214
4.1303458 1.2254138 -1.4025676 4290292132
4.129591 1.1976711 -1.3997073 4288514955
4.1395988 1.1730852 -1.4006608 4283908154
4.1604261 1.1514554 -1.4054278 4281802265
3.0113108 0.81367457 -1.0040449 4285947233
4.4529691 1.173758 -1.5020393 4280032546
4.5445738 1.1681217 -1.5312771 4279706152
4.6077604 1.1542645 -1.5506629 4279442467
4.6580501 1.1365297 -1.5655996 4279376159
4.7018371 1.1166878 -1.5783116 4279375130
4.7631068 1.1004047 -1.5970619 4279308822
4.789197 1.0755194 -1.6037357 4278255616
4.6762013 1.0200552 -1.5627394 4283452994
4.4820085 0.94893956 -1.4940943 4284637519
4.4700999 0.91779888 -1.4880561 4289504399
4.4626279 0.88776469 -1.4836068 4290094216
4.4651976 0.85982829 -1.4826535 4293711283
4.4573393 0.82998526 -1.4782043 4285617972
4.4558153 0.80144554 -1.4759797 4286540618
4.4232812 0.76760858 -1.4632676 4288054885
4.4204264 0.73920298 -1.4607252 4287198806
4.4239426 0.71191531 -1.4604074 4284039715
4.4375982 0.68620521 -1.4635854 4288186471
4.438911 0.65854651 -1.4626319 4290949009
4.6024542 0.65395927 -1.5166582 4279439371
4.9652839 0.67442793 -1.6380582 4279115307
4.9759111 0.64480132 -1.6402829 4279771434
4.9778919 0.61402547 -1.6396472 4285622377
4.981566 0.58347023 -1.6396472 4279042818
4.9501839 0.5490284 -1.6278886 4279373327
1.8349246 0.19236913 -0.57692015 4286603866
4.8961577 0.48229674 -1.6075493 4279045902
4.7687325 0.44022804 -1.5636928 4279242509
4.7212768 0.40665114 -1.5468493 4279045391
4.6669741 0.37314487 -1.5277812 4279045391
4.7703543 0.35195854 -1.5617859 4279177488
4.76864 0.32242605 -1.5605147 4279177488
4.7648506 0.29281163 -1.5586079 4279309337
4.7722378 0.2638832 -1.5605147 4279573289
4.786078 0.23520035 -1.5646461 4280166198
4.7883787 0.20586975 -1.5649639 4280627268
4.7886038 0.1764501 -1.5646461 4284832879
1.8166207 0.056020822 -0.5677039 4287334778
1.8159823 0.044849984 -0.56738609 4285351990
1.8380274 0.034106463 -0.57469553 4285813823
1.7775244 0.022087207 -0.55435628 4287065169
1.7577156 0.011059237 -0.5476824 4282722589
1.7387872 0.00027512951 -0.5413264 4280752658
1.7207415 -0.010282156 -0.53528816 4280885786
1.7159054 -0.020781746 -0.53369915 4281214238
1.7091098 -0.031187352 -0.53147459 4281278750
1.7126777 -0.04176699 -0.53274578 4281278752
1.7142847 -0.052333292 -0.53338134 4281080863
4.7552304 -0.2042923 -1.5538409 4289972417
4.7643042 -0.23397845 -1.5573367 4289710785
4.7684593 -0.26352164 -1.5592436 4289644994
4.7620206 -0.29248434 -1.5576545 4289579971
4.7714882 -0.32246619 -1.5614681 4289382592
4.7618551 -0.35117894 -1.5589257 4289053886
1.8542578 -0.14795506 -0.58200496 4289706163
1.8863782 -0.16217919 -0.59312797 4279245852
4.7413664 -0.4375487 -1.5544765 4289579203
4.7640691 -0.4691439 -1.5630572 4290104516
4.7516708 -0.497379 -1.5598792 4292667874
4.7428756 -0.52589792 -1.5579723 4282863945
4.7414432 -0.55521047 -1.5586079 4291485658
4.7332416 -0.58371234 -1.5570189 4289119167
4.7615409 -0.61688846 -1.5678241 4292406247
4.8206143 -0.65464669 -1.5891168 4282728766
4.8897266 -0.69462043 -1.6139053 4278650629
4.8788075 -0.72363591 -1.6116807 4290297280
4.8517871 -0.75007957 -1.6040535 4289902263
4.8049684 -0.77305466 -1.5897524 4287270025
4.7992001 -0.80236644 -1.5894346 4279110669
4.8614478 -0.84347415 -1.6123164 4279442459
4.8748441 -0.87664539 -1.6186724 4279508763
4.8563237 -0.90410978 -1.6142231 4279505940
4.8413744 -0.93209738 -1.6110451 4288120961
4.5770445 -0.91034555 -1.5226964 4280816651
4.5695148 -0.9380312 -1.5220608 4285884001
4.5497589 -0.96310502 -1.5172938 4293451734
4.5548806 -0.99342912 -1.5211074 4292266171
4.5449991 -1.0205274 -1.5198362 4289502865
4.5608225 -1.0535192 -1.5274634 4288121466
4.5551953 -1.0817032 -1.5277812 4289897623
4.7492771 -1.1586386 -1.5970619 4280359440
4.8423285 -1.2128761 -1.6317022 4279572497
4.5611434 -1.1722126 -1.5369974 4280888871
4.743649 -1.2502117 -1.6027822 4281611568
4.7230735 -1.2758321 -1.5983331 4278322955
4.6585011 -1.2891055 -1.5786294 4287409321
4.6131024 -1.3070649 -1.5655996 4288723128
4.5558219 -1.3210822 -1.5484383 4280034863
4.4985452 -1.3344463 -1.5312771 4279773489
4.3977265 -1.3339436 -1.4988613 4279971642
4.2346001 -1.3128759 -1.4445174 4279640097
4.0691924 -1.2889992 -1.3892199 4291804842
4.0476756 -1.3095639 -1.3844529 4289756247
4.0377631 -1.3337802 -1.3838173 4291465063
4.0339952 -1.3600453 -1.3854063 4291199579
4.0246778 -1.3844633 -1.3850884 4292451453
4.0098443 -1.4069344 -1.3828639 4290809202
4.0029216 -1.4321507 -1.3834995 4288771167
3.9887142 -1.4547355 -1.3815926 4283047702
3.9797132 -1.4791825 -1.3815926 4283113498
3.9670155 -1.5022303 -1.3803215 4284234037
4.0072613 -1.5456556 -1.3981184 4283774513
4.4345345 -1.7418393 -1.5554299 4285354822
4.4889092 -1.7950735 -1.5789472 4283578914
4.4742975 -1.821153 -1.5776761 4282857248
4.4612875 -1.8478466 -1.5770404 4284046407
2.665766 -1.1425042 -0.93063283 4283587665
2.6639204 -1.1611133 -0.93253964 4278979334
2.6203406 -1.1612968 -0.91919202 4281677101
2.4409237 0.9938482 -0.87354523 4281736710
2.4478528 0.97920346 -0.87387329 4283117348
3.9702151 1.5607748 -1.4397464 4280818702
3.9709053 1.5329801 -1.436466 4281871131
3.9334245 1.4908288 -1.4190798 4282855967
3.9088571 1.4541399 -1.4066141 4282526489
2.7864039 1.016795 -0.98836005 4286342747
3.9192932 1.4035131 -1.4039898 4281804837
3.1426775 1.1034473 -1.1149844 4282657575
2.7903578 0.96040958 -0.98311138 4282790701
2.7774036 0.93692166 -0.97622252 4283448633
4.0198183 1.3291669 -1.4285929 4279436548
4.038682 1.3079724 -1.4325294 4279305216
4.0502329 1.2843101 -1.4338416 4279370496
4.018343 1.247103 -1.4194077 4279699459
2.8988354 0.87985474 -1.0103389 4289173649
2.9050853 0.86232042 -1.010667 4284239176
4.0478745 1.175036 -1.4220321 4279174146
4.0459208 1.1475961 -1.4187517 4281013007
4.0865674 1.13209 -1.4308892 4281541412
4.2630391 1.1529098 -1.4919051 4280033575
4.2800794 1.1293845 -1.4955136 4280168246
4.5092244 1.1603645 -1.5752279 4279246630
4.5611548 1.1439463 -1.591302 4279442469
4.6139693 1.1271584 -1.6077042 4279506720
4.6851273 1.1141405 -1.6306671 4279505948
4.7139621 1.0904872 -1.6385401 4279243544
4.7482123 1.0677668 -1.6483814 4278520072
4.62363 1.0099536 -1.6017994 4282532670
4.4523177 0.94390297 -1.5388153 4284243026
4.4515491 0.91523284 -1.5365189 4284241480
4.4496694 0.88642305 -1.5338945 4290357909
4.4448218 0.85713351 -1.5302861 4291672217
4.4379253 0.82759005 -1.5260216 4286606411
4.4215379 0.79648638 -1.5184766 4286869841
4.415174 0.76739722 -1.5145401 4292923826
4.4030299 0.73747849 -1.5086353 4282791957
4.4046741 0.70999634 -1.5076512 4293711016
4.4266839 0.68570864 -1.5138839 4293578656
4.5354567 0.67411554 -1.5506247 4285293382
4.8378363 0.68882358 -1.6552702 4280889911
4.8400993 0.65887088 -1.6546142 4280166200
4.8524823 0.63025731 -1.6575665 4280033573
4.8525081 0.60000658 -1.6562544 4286016875
4.8317051 0.56735057 -1.6477253 4280821798
4.8557506 0.53999507 -1.6549423 4287404434
4.838304 0.50801539 -1.6477253 4278192902
4.8046675 0.47468743 -1.6349317 4279508511
4.7416463 0.43908411 -1.6119686 4279508252
4.6670785 0.40329349 -1.5850692 4279244827
4.6722898 0.37487662 -1.5860534 4280034091
4.6726179 0.3460609 -1.5853972 4279376169
4.6784234 0.31764063 -1.5867094 4279442216
4.6670842 0.2881102 -1.5821168 4279442729
4.6772528 0.259942 -1.5850692 4279641654
4.6778164 0.23119116 -1.5847411 4279576633
4.6687651 0.2020324 -1.5811327 4279773758
4.6680293 0.17331104 -1.5804766 4281742661
1.840174 0.056306239 -0.59766155 4289237629
1.8197087 0.044492722 -0.59044462 4284035868
1.815225 0.033236846 -0.58880442 4286273083
1.7804451 0.021650225 -0.57666683 4285880378
1.7607069 0.010592668 -0.56977797 4282001946
1.7399561 -0.00022236007 -0.56256104 4280883992
1.7257524 -0.010819309 -0.55764037 4281016861
1.712429 -0.021253042 -0.55304778 4281279520
1.7084885 -0.031692415 -0.55173564 4281213727
1.7092062 -0.042197574 -0.55206364 4281082654
1.7117478 -0.052769661 -0.55304778 4280950557
4.6726589 -0.19944026 -1.5824449 4288920242
4.6722908 -0.22815326 -1.5827729 4289053625
4.6689162 -0.25671434 -1.5821168 4289118648
4.6201077 -0.2824868 -1.5657147 4289579199
4.688036 -0.31550652 -1.5899898 4289513406
4.6520944 -0.34178257 -1.5781803 4289053886
4.6395507 -0.36949849 -1.5745718 4288330163
4.6371965 -0.39795929 -1.5745718 4288001456
1.8407531 -0.17006461 -0.60028589 4282274377
4.6451259 -0.45612398 -1.5791644 4288725697
4.6516352 -0.48559582 -1.5824449 4288856254
4.6344838 -0.51257437 -1.5775242 4290498248
4.6106086 -0.53859532 -1.5703073 4281549886
4.6165938 -0.56802654 -1.5735877 4292077282
4.6130209 -0.59634274 -1.5735877 4292341226
4.6766772 -0.63375336 -1.5972067 4278390282
4.7933598 -0.67951196 -1.6395242 4279572242
4.7760172 -0.70697725 -1.6349317 4279374606
4.7650537 -0.73526222 -1.6326354 4291611317
4.7520576 -0.76314014 -1.6296829 4284504131
4.7491498 -0.79259443 -1.630339 4286739045
4.7535052 -0.82332969 -1.6336194 4282069036
4.7641711 -0.85531515 -1.6391962 4279176973
4.7727652 -0.88711745 -1.6441168 4279897867
4.5464344 -0.87399811 -1.5660428 4291473567
4.5289402 -0.89948875 -1.5617782 4283249712
4.5020499 -0.92290306 -1.5542332 4281212959
4.4824381 -0.94758254 -1.5493126 4282792761
4.4922314 -0.97848219 -1.5548893 4281017121
4.4778466 -1.0041692 -1.5519369 4282004015
4.4743629 -1.0322624 -1.5529211 4281938992
4.4707022 -1.0603504 -1.5539051 4281544492
4.696332 -1.1442841 -1.6368998 4283057731
4.7212992 -1.1810949 -1.6483814 4281086763
4.7221985 -1.2121539 -1.6513338 4281547055
4.5127668 -1.1880076 -1.5788363 4291939528
4.6586266 -1.2569804 -1.6339475 4283256642
4.6225977 -1.2777464 -1.6237782 4278717964
4.5728559 -1.2942624 -1.6086882 4278587669
4.5285316 -1.3117919 -1.5955665 4279180835
4.3963027 -1.3028138 -1.5506247 4280825662
4.2300024 -1.281862 -1.4932173 4279970867
4.2220573 -1.3077928 -1.4932173 4279772461
4.2292652 -1.3385158 -1.4987941 4278191628
3.9512897 -1.2773438 -1.4003813 4290224272
3.9532461 -1.3048185 -1.4039898 4291399530
3.9469562 -1.3296533 -1.4046459 4291924331
3.9324691 -1.3516985 -1.4023496 4290677349
3.9285591 -1.3773638 -1.4039898 4294893002
3.9084685 -1.3973122 -1.3997252 4293181359
3.9015968 -1.4219141 -1.4003813 4291531893
3.8972268 -1.4474704 -1.4020215 4291793005
3.8918064 -1.4726924 -1.4033337 4292056946
3.890631 -1.4995998 -1.4062861 4292255355
3.902463 -1.5317217 -1.4141591 4294363825
4.4948301 -1.7959378 -1.6391962 4291730563
4.4811006 -1.8224167 -1.6382121 4284170287
4.4672151 -1.8487947 -1.6372279 4283915333
2.6655939 -1.1422006 -0.96539712 4283063374
2.6749923 -1.1656985 -0.97162986 4283456592
2.658287 -1.1778842 -0.96802139 4281609511
2.3885856 1.0068372 -0.89135015 4291344818
2.3886333 0.98964214 -0.88897896 4282987304
3.9798768 1.6200974 -1.5051433 4283249436
3.9652808 1.5858661 -1.4956585 4282329623
3.9731853 1.560818 -1.4949811 4280489226
3.9782982 1.5347167 -1.4932874 4280687118
3.9401245 1.4922863 -1.4749956 4281410588
3.9174569 1.4562826 -1.462801 4283321924
2.7665889 1.0093015 -1.0183768 4282462763
3.0695069 1.0984735 -1.1318541 4281081373
3.9098611 1.3720922 -1.449929 4281146386
3.9182065 1.3480761 -1.449929 4280621071
3.9255128 1.3237085 -1.4495902 4280686352
3.9317741 1.2990069 -1.4489127 4280686867
3.9432516 1.2760158 -1.4502677 4281145876
3.943831 1.2495238 -1.4475578 4281211669
3.9469302 1.2239084 -1.4458641 4281277462
3.9435611 1.1963906 -1.4417993 4281343255
3.9616523 1.1753814 -1.4458641 4281539351
3.9760191 1.1531469 -1.4485739 4281539353
4.005651 1.1351401 -1.4570425 4281146139
4.2782378 1.18405 -1.5562927 4279636247
4.2845144 1.1575315 -1.555954 4279441438
4.2951751 1.1321794 -1.5573089 4279969848
4.3038635 1.1062717 -1.5579864 4279641137
4.5095387 1.129668 -1.6318312 4279376934
4.5922546 1.1204817 -1.6599464 4279309852
4.6548848 1.1055406 -1.6806095 4279178006
4.6900001 1.0835212 -1.6911104 4278980884
4.7176747 1.0594636 -1.6989013 4278520074
4.6248045 1.0088477 -1.6623176 4281282349
4.4642982 0.9451915 -1.601006 4283058500
4.4525023 0.91418737 -1.59457 4283585096
4.4487996 0.88501513 -1.5911827 4284768592
4.4495263 0.856812 -1.589489 4284305982
4.4371252 0.82622302 -1.583053 4285488966
4.4272947 0.79631817 -1.5776331 4285093948
4.416338 0.76640433 -1.5718746 4291804834
4.4255967 0.74006718 -1.5735683 4293381808
4.4542074 0.71678293 -1.5823755 4293052065
4.5236106 0.69949812 -1.6060871 4294699726
4.533402 0.67255658 -1.6081196 4280163608
4.7386551 0.67330033 -1.6812869 4280364598
4.7343059 0.64307272 -1.6782383 4281546301
4.7362967 0.61376977 -1.6775608 4288189328
4.7390394 0.58458173 -1.6772221 4281615174
4.7649655 0.55811769 -1.6853518 4288788656
4.7546115 0.49783996 -1.6792545 4282012493
4.6854768 0.4615604 -1.6531717 4287735968
4.5617385 0.42113626 -1.6074421 4288327844
4.5633001 0.39305738 -1.6071033 4292735212
