# .PCD v0.7 - Point Cloud Data file format
VERSION 0.7
FIELDS x y z rgb
SIZE 4 4 4 4
TYPE F F F U
COUNT 1 1 1 1
WIDTH 1094
HEIGHT 1
VIEWPOINT 0 0 0 1 0 0 0
POINTS 1094
DATA ascii
1.6789428 -0.05095581 -0.10851579 4283182127
1.5979574 -0.058295272 -0.10149843 4279763973
6.5219712 -0.8032971 -0.53388935 4286019160
6.3163562 -0.81733489 -0.51630265 4285690205
6.2954278 -0.85393238 -0.51491648 4294766558
6.2782326 -0.89086407 -0.51387686 4290291847
6.2844744 -0.93112272 -0.51491648 4283846463
6.297349 -0.97255617 -0.51656252 4285690480
6.3571644 -1.0217739 -0.522367 4292731097
6.3497934 -1.0605973 -0.5222804 4291546559
6.3480735 -1.1003901 -0.52271354 4291350471
6.3588519 -1.1424925 -0.52427298 4288589733
6.1813016 -1.1497777 -0.50919861 4289905597
4.616365 1.1586612 -0.43564069 4283980123
4.466804 1.091992 -0.41960716 4284833631
4.481164 1.0664085 -0.42039889 4289964969
5.1002803 1.1808882 -0.4829495 4287334794
5.0511265 1.1368853 -0.47720909 4285161828
5.043426 1.1026793 -0.47572452 4283715154
5.0471764 1.0710922 -0.47542757 4287996068
5.0068722 1.0304639 -0.4706769 4287995819
6.3430042 0.82533723 -0.5984503 4286018921
6.361774 0.78811705 -0.59983587 4288190089
3.6359499 0.42729077 -0.32637513 4287795848
6.5044737 0.72489202 -0.61319715 4291413434
6.5177059 0.68590659 -0.61408794 4288848011
6.3485017 0.62870824 -0.59676778 4290625699
6.421597 0.59619468 -0.60369581 4288257420
6.6115093 0.57296622 -0.62230265 4288257690
1.9109722 0.11760784 -0.15267855 4294637544
1.8401234 0.10187408 -0.14555255 4279241477
1.9808476 0.097566836 -0.15950765 4294768360
1.9704734 0.084932871 -0.15841895 4289699720
1.8208047 0.067201972 -0.14347412 4282789145
1.793334 0.055153728 -0.14070289 4282920226
1.7856804 0.043947905 -0.13991112 4284301879
1.7709929 0.032704856 -0.13842653 4283643951
1.72937 0.021294674 -0.13426968 4285420364
1.7115569 0.010560261 -0.13248818 4283448381
1.7026336 5.1698298e-05 -0.13159743 4281671970
1.6896658 -0.010325405 -0.13031079 4281540384
1.6766354 -0.020543372 -0.12902415 4281605664
1.6734929 -0.030777827 -0.12872723 4281606177
1.6702883 -0.040974494 -0.12843031 4281671457
1.663043 -0.05101376 -0.12773751 4281408798
1.6239153 -0.059816528 -0.12387758 4280556569
6.6651206 -0.28282076 -0.62576669 4292927955
6.6443753 -0.32279775 -0.62388617 4288782741
6.6124616 -0.36193451 -0.62091702 4288190604
6.6875906 -0.40720475 -0.6286369 4290032810
6.6829805 -0.44809857 -0.62843895 4290362545
6.6642265 -0.48793632 -0.62685537 4288324247
6.674994 -0.52991813 -0.628241 4290956481
6.6577358 -0.56967986 -0.62685537 4289970358
6.7373548 -0.61814278 -0.63516903 4288654237
6.5106111 -0.75891191 -0.61418688 4288055681
6.3448381 -0.77910691 -0.59805441 4284436553
6.2570353 -0.80734235 -0.58974069 4282464307
6.2549219 -0.84611917 -0.59003764 4294372838
6.2486277 -0.8843435 -0.58993864 4294634981
6.2470217 -0.92324883 -0.59033453 4291279289
6.2196012 -0.95823312 -0.58815718 4287923594
6.2116399 -0.99606293 -0.58795923 4289175971
6.1975584 -1.032851 -0.58716744 4289178789
4.4403281 1.1996126 -0.47553641 4285427821
4.4428 1.1710786 -0.47498167 4286348160
4.3652511 1.0935358 -0.46444154 4284898133
4.4520173 1.0862768 -0.47365028 4283648319
4.4556975 1.0582505 -0.47331744 4284109643
4.4669485 1.0320091 -0.47387218 4283519822
5.0599403 1.1037303 -0.54021943 4284306260
5.0442557 1.0679296 -0.53766757 4287732888
5.1441727 1.0561392 -0.54831868 4283850590
6.2889318 0.85411268 -0.67058402 4294046193
6.2083073 0.80440372 -0.66093147 4288453510
6.2407451 0.76969969 -0.664038 4281413161
3.6157489 0.42360505 -0.368471 4285097306
6.4156675 0.71145034 -0.68267739 4278453514
6.3398485 0.66369456 -0.67369056 4287073397
6.1865435 0.60930324 -0.65604973 4287467896
6.4365821 0.59405982 -0.68367594 4293454308
6.4727817 0.55736625 -0.68733722 4293783522
6.49193 0.51890546 -0.68911242 4291148971
6.5058947 0.47986546 -0.69033283 4290291102
6.4878931 0.4385308 -0.68800294 4288975743
6.5202208 0.4005399 -0.69133139 4290159506
6.5185866 0.36030588 -0.69088757 4290160281
2.0508518 0.10100674 -0.19128612 4286743160
1.8443674 0.068200395 -0.16809785 4286078282
1.8189237 0.056091353 -0.1652132 4284236589
1.8251948 0.045075543 -0.16587889 4284631347
1.7906592 0.033237524 -0.16199568 4284697140
1.7321981 0.021533906 -0.15544972 4286013000
1.6965204 0.010687749 -0.15145558 4282790693
1.7025172 0.00027750336 -0.15212128 4281213727
1.7024866 -0.010168949 -0.15212128 4281082660
1.6964297 -0.020541456 -0.15145558 4281213989
1.6903099 -0.030840019 -0.15078989 4281214246
1.6900887 -0.041210983 -0.15078989 4281475878
1.689804 -0.051580396 -0.15078989 4281541671
6.5791097 -0.28279841 -0.69721168 4282664016
6.5732799 -0.3229664 -0.69676787 4282600529
6.5463667 -0.36192024 -0.69399416 4282206284
6.5529509 -0.40263021 -0.69499266 4282534748
6.5473819 -0.44262952 -0.69465983 4287268754
6.5296755 -0.48169756 -0.69299561 4287925653
6.5176811 -0.5210405 -0.69199705 4283517001
6.5054507 -0.56025445 -0.69099855 4287728006
6.496942 -0.59970355 -0.69044381 4288185726
6.486217 -0.63887447 -0.68966717 4287593328
6.4554882 -0.67586541 -0.68667156 4286933854
6.4393654 -0.71414757 -0.68534017 4291736743
6.4792809 -0.75885022 -0.69033283 4282265121
4.6902065 -0.57840157 -0.48962688 4282462246
4.6688285 -0.60486937 -0.48762977 4283384120
4.6443491 -0.63069522 -0.48529989 4287462257
4.6295681 -0.65764219 -0.48407942 4282921259
4.6107001 -0.6838479 -0.4824152 4281277453
4.5887384 -0.7093913 -0.48041815 4287067246
4.5676188 -0.73484892 -0.47853202 4293978342
6.0921488 -1.0186377 -0.6516118 4289178024
4.8513093 -0.93401092 -0.51359177 4287597691
4.8386641 -0.96240276 -0.51281512 4289304451
4.8424029 -0.99407333 -0.5139246 4289831056
4.8585739 -1.0285026 -0.51647639 4290097573
4.8638234 -1.0608373 -0.51780778 4289443244
4.4596744 1.2053121 -0.53482068 4284704618
4.2568483 1.1224561 -0.50786573 4288321941
4.220408 1.0851828 -0.50232708 4284767062
4.3770471 1.0684115 -0.52066624 4284834409
4.4404826 1.0550842 -0.52792811 4284045659
5.0544367 1.1032465 -0.60350037 4281674550
5.0465488 1.0691237 -0.60165411 4286348674
5.3708739 1.1035177 -0.64190191 4287205263
6.2383242 0.92655116 -0.74405986 4290165946
6.2930155 0.89525384 -0.75021392 4291873735
5.9955287 0.81537575 -0.71230471 4289374102
6.0348625 0.78304857 -0.71661258 4289307539
3.5842276 0.44224444 -0.40976951 4282071087
6.3071771 0.73985106 -0.74947548 4280623133
6.302721 0.70014924 -0.74836773 4284111702
6.0117965 0.63045818 -0.71156627 4288324494
6.0185146 0.59385151 -0.71193546 4279310604
6.3856888 0.59061164 -0.75722963 4281811025
6.4099555 0.55321437 -0.75981432 4282467929
6.4587326 0.51752764 -0.76547611 4282532693
6.4647555 0.47810799 -0.76584536 4282339687
6.4814286 0.43937415 -0.76756847 4281486175
6.4364586 0.39665794 -0.76166058 4282404710
6.485342 0.35974884 -0.76744539 4280496981
6.4854445 0.31985065 -0.76719928 4281354851
1.9513314 0.083419465 -0.20409968 4282529571
1.8496603 0.067644551 -0.19142225 4286277971
1.8103638 0.055061601 -0.186499 4284368945
1.8315015 0.044471554 -0.1890837 4284894519
1.7722064 0.032114748 -0.1816988 4285223484
1.7426007 0.020863701 -0.17800635 4285289279
1.7010162 0.0098997047 -0.1728369 4282592292
1.6891361 -0.00054213678 -0.17135993 4281344546
1.6891011 -0.010906471 -0.17135993 4281017641
1.6929717 -0.021317635 -0.17185223 4281083430
1.6828866 -0.031526126 -0.17062142 4281412395
1.6786931 -0.041755583 -0.17012909 4281542954
1.6774132 -0.05202499 -0.17000601 4281608747
6.4358339 -0.27537695 -0.76079899 4280826446
6.2902961 -0.30785388 -0.74295211 4287401888
6.2823439 -0.34611818 -0.74221361 4279705136
6.3345823 -0.38798621 -0.74898314 4281418583
6.3736691 -0.42964283 -0.7541526 4281286229
6.4174304 -0.47215685 -0.75993741 4278853428
6.4252944 -0.51239043 -0.76129133 4279643973
6.4368606 -0.55307728 -0.76313752 4280499282
6.4313693 -0.59238106 -0.76289141 4281485405
6.4276137 -0.63183194 -0.76289141 4282668904
6.4601364 -0.67506886 -0.76744539 4281613896
6.4174032 -0.71044308 -0.76264524 4279965978
4.7263861 -0.55292368 -0.55205214 4282661433
4.7032051 -0.57949162 -0.54959047 4282200104
4.6877503 -0.60681319 -0.54811352 4282396455
4.6514859 -0.63116986 -0.54405183 4283447855
4.6298385 -0.65719289 -0.54183632 4283052582
4.5982313 -0.68152171 -0.53839004 4282528042
4.5831742 -0.70805907 -0.53703612 4282068005
4.5591464 -0.7330218 -0.53457451 4281674791
4.5212812 -0.7554304 -0.53038973 4280689438
4.5331845 -0.78603631 -0.53248209 4291346358
4.7744274 -0.85801125 -0.56349874 4283644980
4.7710242 -0.88765299 -0.5637449 4282789412
4.7576914 -0.91541255 -0.56276023 4285751128
4.7977347 -0.95367056 -0.5685451 4282068009
4.7995706 -0.98468459 -0.56952977 4281806637
4.7924671 -1.0139107 -0.56940669 4279440399
4.8617902 -1.0597657 -0.57900709 4293325289
4.0631261 1.1252961 -0.53694546 4287267469
4.1053448 1.1099088 -0.54194772 4284108629
4.1044126 1.082677 -0.54086614 4285424226
4.0831499 1.0503167 -0.53694546 4281344543
4.3835368 1.0703819 -0.57736927 4282994260
5.1072359 1.1478492 -0.67592776 4278387972
5.0531964 1.1031808 -0.66741037 4283454033
5.0550237 1.0711277 -0.6667344 4282993482
5.3701367 1.1034882 -0.70972699 4290757054
6.0216498 1.0840278 -0.79652333 4288915617
6.0750465 1.0551952 -0.80301273 4289374628
6.0931339 1.0198615 -0.80463511 4285294435
6.1080804 0.98387313 -0.80585188 4286279010
6.1110649 0.9459216 -0.80544627 4289565824
6.1147938 0.9081161 -0.8051759 4291735967
6.0427551 0.85956091 -0.79449534 4294701023
5.8859205 0.80044746 -0.77218789 4290426788
5.9378853 0.77043343 -0.77867734 4283713085
6.246357 0.77149558 -0.82045311 4281870636
6.2736077 0.73580736 -0.82356268 4280949284
6.2435374 0.69347322 -0.81883079 4290628532
5.8988347 0.61859185 -0.77097112 4291810242
6.0671883 0.59862214 -0.793549 4280955966
6.2937222 0.58198833 -0.82410347 4279512647
6.2853289 0.54233843 -0.8224811 4284376176
6.3142176 0.50581771 -0.82599622 4282273124
6.2994156 0.46575096 -0.82356268 4280963955
6.253716 0.42381003 -0.81693804 4281751929
6.2829003 0.38707334 -0.82058835 4281751927
6.2742748 0.34791213 -0.81910115 4289841109
6.2832184 0.30974841 -0.82004756 4294244083
6.2909398 0.27144542 -0.82085872 4294109406
1.8180293 0.067547008 -0.20990439 4287068259
1.8293034 0.056726035 -0.21139155 4284564014
1.8464558 0.045915779 -0.21368991 4285156151
1.8298618 0.034273393 -0.21139155 4284960054
1.7101578 0.021560628 -0.19503275 4285026107
1.6825154 0.010893638 -0.19124724 4283118636
1.6944404 0.00057100976 -0.1928696 4281147164
1.6924305 -0.0098139495 -0.19259921 4281018150
1.6893661 -0.020162169 -0.19219361 4281280039
1.6892105 -0.030527549 -0.19219361 4281411625
1.6969157 -0.041085437 -0.19327518 4281346856
1.6926702 -0.051375601 -0.19273441 4281279780
6.2494564 -0.26751897 -0.81518048 4288787106
6.2298837 -0.30498669 -0.81274694 4289507230
6.0478396 -0.33327314 -0.78814107 4292664530
6.0318351 -0.36952662 -0.78624833 4287007373
6.2627573 -0.42227548 -0.81815481 4285300614
6.2363329 -0.45894834 -0.81491005 4285562758
6.2284613 -0.49681088 -0.81423408 4287338391
6.2282567 -0.53527343 -0.81463969 4286550419
6.2297888 -0.57393402 -0.81531566 4286617756
6.2261491 -0.6121484 -0.81531566 4287210404
6.2183347 -0.64992762 -0.81477487 4287011223
6.2270317 -0.68948871 -0.81653243 4279901207
4.7534146 -0.55577505 -0.61468363 4281147416
4.7410641 -0.58384037 -0.61346686 4281806115
4.71381 -0.60986698 -0.6102221 4281872168
4.6785607 -0.63451529 -0.60589582 4284635735
4.6323972 -0.65722221 -0.60008234 4282794301
4.6116152 -0.683164 -0.59778404 4281871139
4.5818782 -0.70751405 -0.59426892 4281739553
4.544189 -0.73026663 -0.58967221 4281739301
4.5181231 -0.75454307 -0.58669788 4281345060
4.5260992 -0.78445232 -0.58845544 4282989885
4.6733308 -0.83955169 -0.60954612 4287595646
4.7586832 -0.8850674 -0.62211943 4282133030
4.7628922 -0.91612172 -0.62347138 4280621600
5.973877 -1.1872069 -0.79273778 4285291872
4.769733 -0.97828472 -0.62604016 4284437333
5.9540119 -1.2594005 -0.79206181 4278978569
5.9510121 -1.2969652 -0.79273778 4290692031
5.9332747 -1.3312857 -0.79138583 4288587682
3.9605057 1.123343 -0.57451928 4285889139
3.93873 1.0910909 -0.57010055 4283649844
4.1210198 1.1144614 -0.59720218 4281740323
4.1268244 1.0889018 -0.5970549 4283911509
4.0912838 1.0527031 -0.59057409 4282530876
4.349967 1.0909241 -0.62931174 4284966759
5.0286951 1.1309119 -0.72902811 4279570191
5.0191135 1.0964429 -0.72652417 4292202710
5.0305848 1.0666525 -0.72726065 4287071624
5.4768596 1.1263109 -0.79413098 4283585615
5.8590508 1.1675655 -0.85113281 4281676847
5.883585 1.1349688 -0.85378408 4280558102
5.9079394 1.1021147 -0.8564353 4285817941
5.9379516 1.0700581 -0.85997033 4293511864
5.9366102 1.0322462 -0.85879201 4291602838
5.9711204 1.0005462 -0.86306345 4292920243
5.9908171 0.96609652 -0.86512554 4284694837
6.0503893 0.93766093 -0.87322658 4281473301
6.0795083 0.90401471 -0.87676156 4279370245
5.7363515 0.81697619 -0.82432574 4287334531
5.7226362 0.77922392 -0.82152724 4286811259
3.5842094 0.46522087 -0.49969521 4279699972
6.1106601 0.75588149 -0.87838179 4281284176
6.1043782 0.71710151 -0.87676156 4284113778
5.7361031 0.63811046 -0.82093805 4287995531
5.7389274 0.60279888 -0.82079077 4279244056
6.1194959 0.60491091 -0.8772034 4281548120
6.1142287 0.56652802 -0.8758778 4284839300
6.1205454 0.5292573 -0.87631971 4281551191
6.1000166 0.48978794 -0.87278467 4281817458
5.9845424 0.44355369 -0.85510969 4281751668
6.0611615 0.41186842 -0.86615658 4282605431
6.0941777 0.37656698 -0.87072259 4284772981
6.0963736 0.3391667 -0.87072259 4286082134
6.1121697 0.30244067 -0.87278467 4284962370
6.1099582 0.26475936 -0.87219554 4287853153
1.8099383 0.066480331 -0.23118272 4285026635
1.7786766 0.05438536 -0.2264694 4284300842
1.8244607 0.044611972 -0.23324481 4284827185
1.7940438 0.032835346 -0.22867879 4285222197
1.6933322 0.020533616 -0.21365505 4285025853
1.6865029 0.010096879 -0.21262401 4282132262
1.6984023 -0.00024502416 -0.2143915 4281212446
1.7013359 -0.010682808 -0.21483338 4281017121
1.6864029 -0.020947834 -0.21262401 4281345315
1.6832759 -0.031242017 -0.21218213 4281478691
1.6771197 -0.041427407 -0.21129838 4281214500
1.6778226 -0.051747043 -0.21144567 4281148196
5.8087416 -0.24764594 -0.82727158 4290167981
5.8011851 -0.2829951 -0.82638782 4290427300
5.9879746 -0.32890961 -0.8545205 4287860093
5.8002377 -0.35434362 -0.82682973 4288452499
5.9390774 -0.39938885 -0.8478924 4294306793
5.9434204 -0.43632838 -0.84892344 4292400590
5.9189396 -0.47106624 -0.84568304 4290362545
5.9119959 -0.507038 -0.84509385 4287335559
5.9934797 -0.55107558 -0.85776097 4289179049
6.0490479 -0.59362513 -0.86659843 4288719268
6.0570974 -0.63195962 -0.86836594 4289640624
6.0511394 -0.66889644 -0.86807138 4294308587
6.0076232 -0.70143235 -0.8621797 4282266674
4.7092986 -0.5794093 -0.66804945 4281805094
4.7007499 -0.60766131 -0.66731298 4282135601
4.6841912 -0.63476968 -0.66539818 4285229155
4.6253653 -0.65573823 -0.65714985 4286742394
4.6124482 -0.6828053 -0.65582424 4279898127
4.5729795 -0.70567238 -0.65052176 4281082401
4.5392652 -0.7290206 -0.64610296 4281477159
4.5298285 -0.75604635 -0.64536655 4281674538
4.5270534 -0.78416371 -0.64566112 4281805611
4.5270247 -0.81279922 -0.64639759 4281609507
4.6824117 -0.87034589 -0.67070067 4278979344
5.776557 -1.110152 -0.83743471 4279109137
5.7686663 -1.1453829 -0.83728743 4290818735
5.7780027 -1.1841296 -0.83979136 4282264608
5.7948227 -1.2246687 -0.84347367 4285422674
5.7794671 -1.2585199 -0.84229535 4289304210
5.0284486 -1.1274959 -0.72888082 4284830026
5.7915392 -1.3357891 -0.8465668 4291407263
5.7659097 -1.367196 -0.84391552 4291277219
5.7554903 -1.4020814 -0.84362096 4291277220
5.7438998 -1.4366505 -0.84317911 4291013283
5.7225218 -1.4686733 -0.84126431 4286412398
3.894341 1.1294667 -0.61510539 4290095529
3.8831506 1.1004375 -0.61208075 4283384378
3.9640467 1.0971239 -0.62449771 4286672490
4.1546526 1.1224595 -0.65522176 4282068269
4.1165924 1.0851231 -0.64773971 4286806651
4.1298666 1.0615634 -0.64885408 4285755246
4.8916111 1.0985104 -0.7696808 4281411365
4.9513111 1.0800433 -0.77843636 4284965219
5.0128989 1.0612936 -0.78751034 4287530114
5.7156219 1.1734184 -0.90212858 4293182649
5.7517633 1.144102 -0.90690434 4293443750
5.6927519 1.0961 -0.89607924 4292194451
5.7216935 1.065304 -0.8997407 4294364601
5.719378 1.0286041 -0.89830792 4292723886
5.7236357 0.99315387 -0.89798957 4294965474
5.7315698 0.95834112 -0.89830792 4294964450
5.7149234 0.91954923 -0.89464653 4294964959
5.7399712 0.88748145 -0.89783037 4294964699
5.6779256 0.84225404 -0.88684613 4294503887
5.6370463 0.80087554 -0.87936407 4289895305
3.5688896 0.48486793 -0.54203624 4284969055
5.7492518 0.74495345 -0.89607924 4284239687
5.7360783 0.70748854 -0.89321381 4282198827
5.7285447 0.67090201 -0.89130348 4289109911
5.6177487 0.6230157 -0.87267804 4288781967
5.6784153 0.59449238 -0.88191116 4282003241
5.7016063 0.56157321 -0.885095 4284502861
5.7354198 0.52938908 -0.89002997 4281869860
5.730691 0.4935101 -0.88875645 4292396478
5.7336111 0.45833796 -0.88875645 4294894803
5.7392693 0.42336625 -0.88923401 4294960601
5.7358494 0.38774368 -0.88827884 4294370258
5.7322083 0.35217902 -0.88732368 4291015067
5.7401757 0.31732681 -0.88827884 4284037937
5.7193351 0.28098708 -0.88461745 4281471758
5.709115 0.2453807 -0.88270712 4281934883
1.8381829 0.06797301 -0.25787851 4281548607
1.8188297 0.056088466 -0.25469467 4282526238
1.828022 0.045144755 -0.25612739 4284631099
1.8055618 0.033510905 -0.25246596 4284696882
1.746503 0.021708528 -0.24291445 4285025845
1.6774971 0.010572267 -0.23177104 4282197788
1.6814796 0.00027888027 -0.23240779 4281147164
1.6794752 -0.010026245 -0.23208942 4280886051
1.679382 -0.02033112 -0.23208942 4281280039
1.670342 -0.030471105 -0.23065667 4281870890
1.6681496 -0.040670969 -0.23033829 4281410855
1.6718158 -0.051027171 -0.23097508 4281213474
5.7051711 -0.24518105 -0.88207036 4294100651
5.6976428 -0.27989167 -0.8811152 4293375127
5.6849751 -0.31424636 -0.87936407 4292851103
5.6868815 -0.3493652 -0.88000089 4291013790
5.650156 -0.38191998 -0.87442917 4291276457
5.6831512 -0.41919839 -0.88016003 4292063653
5.7099943 -0.45642358 -0.8849358 4291139202
5.6864314 -0.48967072 -0.88159281 4292455054
5.687252 -0.52491599 -0.88222957 4291600254
5.6878538 -0.56018972 -0.88286632 4291797376
5.6902003 -0.59569639 -0.88382149 4290942328
5.6884007 -0.63081735 -0.88413984 4286798923
5.6893263 -0.66628331 -0.8849358 4282327580
4.7856598 -0.59018099 -0.73879755 4282200622
4.7457237 -0.61483794 -0.73290747 4281345826
4.7271881 -0.64195168 -0.73051959 4281937963
4.6948147 -0.66691613 -0.72590303 4281674278
4.6603613 -0.69121784 -0.72096807 4281345826
4.6267633 -0.71527284 -0.71619231 4281280033
4.5969448 -0.73956937 -0.7120533 4281477410
4.56603 -0.76336426 -0.70775515 4281543205
4.558342 -0.79086 -0.70727754 4282395953
4.5563188 -0.81933892 -0.70775515 4282857258
4.6997004 -0.87493825 -0.73211151 4284304191
5.6258645 -1.0831975 -0.885095 4281603845
5.6278272 -1.1194307 -0.88652772 4290679931
5.6305227 -1.1559274 -0.88811964 4291140469
5.6242905 -1.1906585 -0.88827884 4291206276
5.6612482 -1.2348269 -0.89560169 4281208588
5.0447936 -1.1327945 -0.79499233 4292790451
5.5869927 -1.2906474 -0.88589096 4289496436
5.5789685 -1.3249042 -0.88589096 4287391834
5.5966296 -1.365431 -0.89018917 4287457879
5.5737815 -1.3961463 -0.88780129 4288050534
5.5947509 -1.4379405 -0.89273626 4285220930
5.555274 -1.4641883 -0.88764209 4290226850
3.6415458 1.080546 -0.6199283 4290754484
3.6613541 1.0620284 -0.62232089 4282728241
4.0952902 1.1608448 -0.6993956 4284243279
4.1127801 1.1385891 -0.70127547 4279834895
4.1282487 1.115648 -0.70281357 4287269766
4.141685 1.092057 -0.70400983 4282992969
4.3133817 1.1091156 -0.73357505 4280888871
4.7011461 1.1170901 -0.7991997 4284702811
4.72999 1.0933322 -0.80313033 4283122237
5.0355644 1.1315378 -0.85627943 4278714368
5.0318241 1.0983053 -0.85439956 4290423720
5.0567818 1.0712941 -0.85764658 4285090633
5.5892315 1.1484307 -0.9507857 4291142049
5.6290264 1.1206619 -0.9565962 4286538843
5.635797 1.0861017 -0.9565962 4289828483
5.6249208 1.0482479 -0.95352 4291472783
5.6196108 1.0116173 -0.95146924 4293115556
5.6325068 0.9782986 -0.95266557 4293706158
5.6209126 0.94078851 -0.94958937 4294758070
5.6168518 0.90471268 -0.94788039 4294168742
5.6174293 0.8694768 -0.94702595 4294828994
5.6109633 0.83325332 -0.94497514 4280686089
5.6257253 0.80019891 -0.94668412 4286081128
5.6031938 0.76194203 -0.941899 4283315502
5.6302361 0.7304675 -0.94582963 4282723617
5.6111441 0.69300389 -0.94172812 4294961887
5.6094193 0.65787166 -0.94070274 4279369728
5.6035576 0.62235093 -0.93899375 4281934883
5.6033516 0.58754462 -0.93831015 4281342746
5.5999875 0.55247355 -0.93711388 4285225295
5.5924802 0.51710212 -0.93523401 4294961626
5.623033 0.48515469 -0.94001913 4294958017
5.6062613 0.44906577 -0.93660116 4294757809
5.6030159 0.41422087 -0.93557578 4285744176
5.6025028 0.37963322 -0.93506312 4286206534
5.5968595 0.34476346 -0.93369591 4283510049
5.6067395 0.31085327 -0.93506312 4282983452
5.5927963 0.27566573 -0.93232876 4282853663
5.5963516 0.24142915 -0.93267053 4282592546
1.8335719 0.067046009 -0.27932975 4284889380
1.8211464 0.055396508 -0.27710807 4281865740
1.8638062 0.045276579 -0.28445667 4281935394
1.8049419 0.032729551 -0.27420282 4281278750
1.7282624 0.020682417 -0.26087284 4284105272
1.6958429 0.0098660449 -0.25523323 4282132770
1.7047392 -0.00053634989 -0.2567713 4280818971
1.6918954 -0.010922581 -0.25454962 4280820262
1.6908112 -0.021291923 -0.25437874 4281016610
1.6837529 -0.03154175 -0.25318244 4281345573
1.6815577 -0.04182484 -0.25284064 4280887332
1.6802846 -0.052112035 -0.25266975 4281082149
5.7100425 -0.2093621 -0.95215285 4282922548
5.5954447 -0.23957106 -0.93249965 4291472027
5.5869803 -0.27356368 -0.93130338 4291208594
5.5930672 -0.30827174 -0.93267053 4287655776
5.5841866 -0.34216398 -0.93147427 4287194206
5.5947618 -0.37728062 -0.93369591 4283048223
5.5884109 -0.41131386 -0.93301237 4282522643
5.5946217 -0.44629925 -0.9345504 4289562744
5.5947227 -0.48087132 -0.93506312 4289628277
5.592648 -0.51528102 -0.93523401 4289692271
5.5942841 -0.5500682 -0.9360885 4284231465
5.5947237 -0.58479267 -0.93677211 4282259729
4.9397779 -0.54713225 -0.8231253 4283248682
4.9020758 -0.57343334 -0.81714392 4281409307
4.8720608 -0.60025442 -0.81252968 4294372074
4.7803411 -0.61877543 -0.79714888 4281740073
4.7002969 -0.63778079 -0.7838189 4281872170
4.6738577 -0.66343009 -0.77988827 4282201133
4.6472816 -0.688779 -0.77595764 4282332459
4.6283612 -0.71502835 -0.77339417 4281937702
4.6112394 -0.74138391 -0.77117252 4281805864
4.592998 -0.76739424 -0.76877993 4281608487
4.6008239 -0.79774702 -0.77100158 4281606688
4.6045704 -0.82752854 -0.77253968 4281081374
4.680778 -0.87088501 -0.78689504 4284041805
5.598424 -1.076965 -0.9499312 4280883482
5.6274686 -1.118395 -0.95625436 4282066469
5.6417351 -1.1572547 -0.9600141 4282261534
5.6306725 -1.191035 -0.95933056 4281474328
5.6299968 -1.2270291 -0.96052682 4280555281
5.5406408 -1.2432318 -0.94600052 4280426003
5.5338683 -1.2774265 -0.94617146 4281477408
5.5566049 -1.3186314 -0.95164013 4293446344
5.514904 -1.3445399 -0.94565874 4291860358
5.4329495 -1.3599464 -0.93249965 4289889379
5.4311833 -1.3949711 -0.93369591 4288839521
5.4063234 -1.4240071 -0.93079066 4289432963
5.3917766 -1.4556131 -0.92976528 4290356644
5.3020196 -1.466362 -0.91523904 4286806645
4.0537987 -1.1482522 -0.69187611 4286148711
4.0476232 -1.1733783 -0.692047 4284565823
4.0573516 -1.2032297 -0.69512314 4286735713
4.0546074 -1.2295308 -0.69597763 4279043072
4.0083976 -1.242437 -0.68897086 4292138194
3.9772139 -1.2595782 -0.6846984 4288457122
3.5156567 1.0672852 -0.64514643 4286608500
4.1296325 1.1710376 -0.76031226 4284637786
4.1158957 1.1399059 -0.75628418 4280162063
4.1427426 1.1200161 -0.76012915 4284637533
4.1504874 1.0948262 -0.76031226 4284179551
4.2371054 1.0899038 -0.77569211 4288851108
4.538588 1.1082284 -0.83098632 4282529846
5.3468227 1.2708004 -0.98441869 4291277998
5.1533723 1.1914784 -0.94596905 4280883992
5.0521984 1.1354837 -0.9252795 4282858301
5.07828 1.1086549 -0.92894137 4290551452
5.0878725 1.0780854 -0.92949063 4282589210
5.5566263 1.1417954 -1.0173756 4281144848
5.5683489 1.1086385 -1.0182911 4280882193
5.5846992 1.0763109 -1.0201221 4280355851
5.6027966 1.0441841 -1.0223191 4280685075
5.6565075 1.0183179 -1.0312907 4280553489
5.6674929 0.98443204 -1.0322062 4280947734
5.7034841 0.95466757 -1.0378821 4280753445
5.7160292 0.9207477 -1.0391637 4280359721
5.7099123 0.88385361 -1.0369666 4279635994
5.7045317 0.84721369 -1.0349525 4286808973
5.7135158 0.81274891 -1.0356849 4280295982
5.7174211 0.77754372 -1.0355018 4279901738
5.7191596 0.74206835 -1.0349525 4279968045
5.7001886 0.70407158 -1.0305583 4280362035
5.7014718 0.66873926 -1.030009 4279835180
5.7103539 0.63428539 -1.0309246 4280229671
5.7063155 0.59841567 -1.0294597 4285887602
5.7079234 0.56319815 -1.0290936 4280558636
5.7083354 0.52789301 -1.0285443 4280164656
5.6928573 0.49125275 -1.0250655 4280756019
5.6938043 0.4561559 -1.0246993 4280096535
5.6945353 0.42106593 -1.0243331 4283711025
5.6930881 0.38585135 -1.0236008 4282722849
5.6776867 0.34982491 -1.020305 4280947986
1.8799874 0.10451725 -0.31155008 4283253045
1.8766657 0.092786521 -0.31081772 4283513899
1.8693421 0.080931216 -0.30935296 4280224000
1.8472078 0.068624906 -0.30514181 4280355330
1.8289242 0.056714352 -0.30166304 4288248164
1.8194097 0.045248877 -0.29983211 4290221176
1.7931139 0.033592865 -0.29488859 4289234539
1.7470846 0.022017838 -0.2862832 4284501823
1.7206436 0.011131752 -0.28133968 4281411358
1.7059331 0.00057226344 -0.27859327 4280818969
1.7049215 -0.009889232 -0.27841017 4281213989
1.6999135 -0.020290462 -0.2774947 4281148194
1.6918936 -0.030576646 -0.27602994 4281411619
1.6897085 -0.040909294 -0.27566376 4281213987
1.691391 -0.051336482 -0.27602994 4280951076
5.6881609 -0.24345702 -1.0212206 4281083191
5.6728129 -0.27768052 -1.0186572 4281545784
5.6474442 -0.31118327 -1.014263 4281808693
5.6679969 -0.34721357 -1.0184741 4282334010
5.6608558 -0.3816542 -1.0175587 4293319647
5.6731133 -0.41746458 -1.020305 4285229420
5.6782856 -0.45289215 -1.0217699 4283651158
5.6695228 -0.48721945 -1.0206712 4284638823
5.6693635 -0.52226859 -1.0212206 4283782744
5.6719227 -0.55762279 -1.0223191 4282399801
5.6693716 -0.59251684 -1.0225022 4284702296
5.6714921 -0.62794179 -1.0236008 4285295722
5.6812024 -0.66432911 -1.0261641 4280100910
5.6818976 -0.69977695 -1.0270796 4282467662
4.7405615 -0.61333019 -0.85112661 4280423958
4.681181 -0.63487083 -0.84069031 4282790188
4.6986113 -0.66662192 -0.84471834 4281080083
4.6866527 -0.69428641 -0.84325361 4279832072
4.6852193 -0.72348034 -0.84380287 4279766794
4.6680737 -0.75018585 -0.84142268 4280490264
4.6333232 -0.77379185 -0.83574677 4280884770
4.6168647 -0.80019134 -0.83354968 4280161049
4.561553 -0.81946158 -0.82402879 4280029204
4.5419412 -0.84473777 -0.82128239 4282398263
4.531846 -0.87166184 -0.82036692 4283385668
4.5167699 -0.89753544 -0.81853598 4284702807
4.4899907 -0.92088568 -0.8145079 4281018401
5.6018691 -1.1848916 -1.0272627 4283845194
5.5531907 -1.2102375 -1.0193896 4282988857
5.5168829 -1.2378296 -1.0138968 4289830815
5.504395 -1.2705514 -1.0129813 4288187017
5.3032784 -1.2584382 -0.97599643 4288909709
5.3346167 -1.3005042 -0.98350328 4280945929
5.3065095 -1.3281982 -0.97965831 4292261296
5.0126071 -1.2873485 -0.92473024 4288973184
5.0055642 -1.3183316 -0.92491329 4285420102
4.96701 -1.3408192 -0.91905433 4285946444
4.0708694 -1.1256826 -0.74749571 4283908922
4.0374012 -1.1431383 -0.74236906 4284238925
4.0520282 -1.1741852 -0.74658024 4282658865
4.0683103 -1.2060132 -0.75115758 4280885534
4.1050515 -1.2443612 -0.75976294 4284639585
3.3857741 1.0740592 -0.66530693 4291739837
3.4204011 1.0619992 -0.67114425 4283646523
4.1118698 1.1944075 -0.81007206 4284701528
4.1276131 1.1715677 -0.81182325 4282463792
4.1290531 1.1446452 -0.81065577 4280555799
4.1568274 1.1249312 -0.81493646 4284109908
4.1683931 1.1006576 -0.81590933 4283848539
4.1684189 1.0733461 -0.8145473 4282400832
4.4156108 1.1082213 -0.86377525 4283320129
5.2836299 1.2919011 -1.0396726 4284238147
5.2017641 1.238088 -1.0213825 4282658087
5.2685075 1.2198786 -1.0334462 4280881421
5.0950398 1.1467797 -0.9966712 4282330149
5.1978006 1.1364682 -1.0161288 4284106814
5.4148006 1.1491954 -1.0587411 4281606426
5.4236712 1.1163452 -1.0591303 4282197534
5.4448476 1.0859259 -1.0620489 4282262312
5.440814 1.0504488 -1.0599086 4282197801
5.5223637 1.0311034 -1.0750856 4288581775
5.6463504 1.0184659 -1.0988239 4279834656
5.6679544 0.98649555 -1.1019372 4280361261
5.6884108 0.95413601 -1.1048559 4279706427
5.7203026 0.92344064 -1.1101094 4279509565
5.709384 0.88576436 -1.1068016 4289835716
3.4872081 0.51865745 -0.66005337 4287467673
5.7178817 0.81535733 -1.1064124 4279971141
5.7208328 0.77999234 -1.1060233 4279643204
5.721621 0.74436831 -1.105245 4279839555
5.7241335 0.70900553 -1.1048559 4279774277
5.7225308 0.67318076 -1.1036884 4280168520
5.720705 0.63740242 -1.1025209 4283717731
5.7196307 0.60177469 -1.1015481 4279641133
5.7232156 0.56666833 -1.1015481 4279578953
5.7256083 0.53144979 -1.1013534 4279970886
5.7189894 0.49545956 -1.0994077 4278192672
5.7101893 0.45941281 -1.0970727 4285297015
5.6962709 0.4231284 -1.093765 4284240718
5.6977825 0.38810191 -1.0935704 4282000674
5.6941819 0.35276857 -1.0924029 4282262563
1.8219198 0.10085464 -0.32265729 4293378997
1.8195655 0.089527145 -0.32207358 4284364592
1.8191005 0.078318 -0.321879 4281800205
1.8068043 0.066676207 -0.3193495 4281803806
1.7895319 0.055034317 -0.3158471 4282857006
1.8300396 0.045068815 -0.32382476 4284104753
1.7988989 0.033238705 -0.31759831 4280815368
1.7392402 0.021422911 -0.30572912 4282066720
1.7216833 0.010629687 -0.30222675 4281213727
1.7060219 5.4137548e-05 -0.29911351 4280885021
1.6991239 -0.010376629 -0.29775149 4281016607
1.6941243 -0.020745408 -0.29677859 4281213729
1.6841577 -0.030966481 -0.29483283 4281476129
1.6819749 -0.041252963 -0.29444367 4281476132
1.7081621 -0.052365918 -0.29969725 4280886055
5.8993506 -0.21420795 -1.1317074 4280492322
5.7156429 -0.24269901 -1.0955162 4279901737
5.6934714 -0.27676907 -1.0914301 4279704099
5.6387768 -0.30881283 -1.0809228 4284835434
5.660274 -0.34483257 -1.0855927 4284506208
5.6286902 -0.37759334 -1.0797554 4284374622
5.6595292 -0.41455269 -1.0863711 4284572001
5.6793694 -0.45105255 -1.0908463 4285164138
5.6784492 -0.48605895 -1.0912355 4285624687
5.6734056 -0.52071321 -1.0908463 4285756273
5.6749859 -0.55599195 -1.0918192 4285690480
5.6763449 -0.59130973 -1.092792 4285821037
5.6774855 -0.62666506 -1.093765 4286875018
5.685225 -0.66285032 -1.0960999 4280692542
5.6946812 -0.69939297 -1.0988239 4280496184
4.7339749 -0.61111075 -0.90755498 4284110169
4.7068062 -0.6369949 -0.90288514 4281475872
4.6960106 -0.66490245 -0.90152311 4280885021
5.7233505 -0.8459549 -1.1083583 4281217334
5.6947842 -0.87747657 -1.1036884 4282795598
4.6742597 -0.74983186 -0.89977193 4280360222
4.6666679 -0.77801532 -0.89918822 4280293914
4.5583839 -0.78876591 -0.8783685 4285095773
4.478147 -0.80323261 -0.86319149 4283581248
4.476028 -0.83123142 -0.86377525 4281870630
4.4746962 -0.85941917 -0.86455357 4282594864
4.5001287 -0.89296055 -0.87077999 4280885273
4.4542036 -0.91230017 -0.86260778 4280754716
4.4331656 -0.93637407 -0.85949457 4280885534
4.414876 -0.9608494 -0.85696507 4281806636
4.3964534 -0.9851355 -0.85443556 4280886305
4.3721647 -1.0079112 -0.85073858 4280161552
4.3553982 -1.032234 -0.84859824 4279569415
4.3270612 -1.0536071 -0.84412301 4284502350
4.3014812 -1.0753846 -0.84023142 4288975502
4.4164262 -1.132924 -0.86513728 4290161056
5.2650957 -1.3848804 -1.0406455 4291869875
5.2337685 -1.4110372 -1.0359757 4291802281
5.2250118 -1.4431244 -1.0359757 4281208837
4.1154423 -1.1641487 -0.80909914 4284367925
4.1044526 -1.1882886 -0.80832088 4282001697
4.1234202 -1.2212428 -0.81376898 4280755746
4.1872025 -1.2681093 -0.82855684 4284840304
3.285419 1.0638435 -0.68885535 4289306001
3.2984142 1.0457337 -0.69029993 4282923064
4.1180921 1.1951137 -0.8648932 4284769382
4.1168752 1.1674213 -0.8630358 4285295211
4.1324477 1.1444885 -0.8648932 4282794561
4.1733975 1.1283008 -0.87232268 4285952112
4.1953807 1.1066638 -0.87562466 4285622631
4.1585002 1.0696917 -0.86613142 4284898908
5.2441387 1.3145945 -1.1007798 4282727479
5.2007756 1.269863 -1.0896355 4281935905
5.2256045 1.2419989 -1.0933503 4283184431
5.1902266 1.1999965 -1.0840634 4281737755
5.1106167 1.1486088 -1.0652833 4283448630
5.2600083 1.1483144 -1.0960331 4283643953
5.2717414 1.1170318 -1.097065 4284630073
5.2976651 1.0886016 -1.1011925 4288051310
5.3109627 1.0574123 -1.1026372 4290619541
5.4970217 1.0594192 -1.1412293 4279306251
5.5592098 1.036064 -1.153199 4280428860
5.5837593 1.0052265 -1.1571201 4279707969
5.6148877 0.97529829 -1.1624858 4280168518
5.639102 0.94389552 -1.166407 4279444275
5.6534824 0.91067678 -1.1682644 4288389810
5.6696005 0.87761629 -1.1705345 4280166717
5.7174644 0.84913355 -1.179615 4279512649
5.7332234 0.81555098 -1.1818851 4279512649
5.7381191 0.78035718 -1.1818851 4279578188
5.7389183 0.74463069 -1.1810596 4279578189
5.74435 0.70952326 -1.181266 4279775055
5.7417932 0.67346579 -1.1798214 4281286225
5.7458172 0.6382221 -1.1798214 4279247406
5.7486515 0.60285246 -1.179615 4279774277
5.7278991 0.56516773 -1.1744556 4279577929
5.7439246 0.53118181 -1.1771386 4279577927
5.7490253 0.4960959 -1.1775513 4278258718
5.7217259 0.45839092 -1.1711537 4282464833
5.7000351 0.42147222 -1.1659943 4281474849
1.8746854 0.12731718 -0.35679796 4285550146
1.8685948 0.11539117 -0.35535336 4282854427
1.8653598 0.10370706 -0.35452786 4281671190
1.8649839 0.092211351 -0.35432148 4281736470
1.8557389 0.080345079 -0.35225773 4282591263
1.8366408 0.068234541 -0.34813023 4283052584
1.8272448 0.056662634 -0.34606647 4282592033
1.8148417 0.045136247 -0.34338361 4282393111
1.8101929 0.033909153 -0.34235173 4283642660
1.7545984 0.022110872 -0.33058834 4282592031
1.7351319 0.011222233 -0.32646084 4282001698
1.7146201 0.00057321106 -0.32212698 4280687896
1.7106775 -0.0099239238 -0.32130149 4281016607
1.7066709 -0.020372653 -0.32047597 4281213986
1.7202101 -0.031094858 -0.32336521 4281279522
1.7111833 -0.041434128 -0.32150784 4281081888
1.724589 -0.05235168 -0.32439709 4280688676
1.7389026 -0.063471198 -0.32749271 4281411116
5.7289424 -0.24520525 -1.1699154 4280427042
5.7136474 -0.2796821 -1.1670262 4280558628
5.6844683 -0.3132259 -1.1612476 4284900966
5.6873226 -0.34839872 -1.1622795 4283321934
5.6372414 -0.38006055 -1.1521671 4282992717
5.6279721 -0.41413972 -1.1507225 4285492851
5.6887245 -0.45372543 -1.1641369 4285756023
5.6936321 -0.48929304 -1.1657879 4285624437
5.6875997 -0.5239498 -1.1651688 4285756277
5.6901207 -0.55941319 -1.166407 4285690223
5.6875539 -0.59441841 -1.1666133 4285952366
5.6799097 -0.62887436 -1.1657879 4286545027
5.656507 -0.66143966 -1.1616604 4280296760
5.727119 -0.70534939 -1.1775513 4280034359
5.7255945 -0.74085391 -1.1781704 4279839292
5.7160926 -0.77531374 -1.1771386 4279904825
5.7063847 -0.80968475 -1.1761067 4282336844
4.7082453 -0.69748688 -0.96436596 4282335300
5.7192264 -0.88323557 -1.1810596 4284898143
5.7117667 -0.91800082 -1.1806469 4284698706
4.8026996 -0.80209303 -0.98747993 4281410336
4.7706933 -0.82686573 -0.98170137 4281871908
4.7578254 -0.85473794 -0.98005044 4282135338
5.6500015 -1.0509173 -1.1725982 4280362530
5.5973263 -1.0766904 -1.1626923 4280361758
4.7604799 -0.94598484 -0.98417795 4281806375
4.7651296 -0.97734016 -0.98644805 4282265899
4.8365827 -1.0229664 -1.0031644 4281936932
4.9392014 -1.0763836 -1.0266912 4281477410
4.9382319 -1.1079555 -1.0279294 4281608996
4.3945827 -1.0142993 -0.9117403 4281084194
4.3559079 -1.0335615 -0.90472353 4279964173
4.3219161 -1.0535467 -0.89873868 4280421390
4.3001833 -1.0762433 -0.89543664 4281737764
4.2868648 -1.1009042 -0.89399207 4281211930
4.2525897 -1.119958 -0.88800716 4281342744
4.2106857 -1.1365925 -0.88037127 4282789671
4.1828852 -1.1566683 -0.87583107 4281868571
4.1653538 -1.1793792 -0.87356091 4282395691
4.1458216 -1.2013737 -0.87087804 4281147936
5.0192442 -1.4880029 -1.0646641 4287860875
3.2111993 1.0828288 -0.71717662 4288057751
3.2242689 1.0652503 -0.71870244 4287332476
3.2298162 1.0451456 -0.71848446 4281937197
4.1007681 1.1623993 -0.91226238 4283057735
4.10218 1.1356517 -0.91095454 4281873459
4.1590018 1.123968 -0.92250711 4283255114
4.1714816 1.0999223 -0.92381495 4287531659
4.2036715 1.0808747 -0.9297002 4286741112
5.1274977 1.2851877 -1.140916 4281540895
5.1390791 1.2546285 -1.1417879 4286278243
5.1476297 1.223298 -1.1420058 4283384120
5.0875306 1.1760678 -1.1265298 4281673502
5.1089334 1.148042 -1.1297994 4284235567
5.1301832 1.1197977 -1.1330689 4285548341
5.1655989 1.0943729 -1.1396081 4286338120
5.2075868 1.0699319 -1.1476731 4283182636
5.4064374 1.0763001 -1.1914856 4281214513
5.4464798 1.0495775 -1.1991147 4280560456
5.4758425 1.0204345 -1.2043461 4279906627
5.5079336 0.99149007 -1.2102313 4279906627
5.5398746 0.96218997 -1.2161167 4280037449
5.5658875 0.93156719 -1.2206941 4287405225
5.6032948 0.90252608 -1.2278872 4279838262
5.6222286 0.87022066 -1.2309388 4279840072
5.6564226 0.84001368 -1.237478 4279380299
5.6759639 0.80735528 -1.2407476 4279578189
5.6972504 0.77475202 -1.2444531 4279512655
5.715446 0.74154043 -1.2475047 4279577939
5.7315111 0.7078951 -1.2501204 4279247155
5.7512555 0.67453599 -1.253608 4282404182
5.7562561 0.63934219 -1.2538259 4279708994
5.7493939 0.6028887 -1.2514282 4279578189
5.752985 0.56759971 -1.2514282 4279381061
5.7621899 0.53282976 -1.2527361 4279445311
5.7653513 0.49746355 -1.2527361 4280233021
5.7225718 0.45840672 -1.2424914 4280558887
5.7097049 0.42213053 -1.2390038 4280422930
1.8738298 0.12619369 -0.37975457 4283709742
5.6881542 0.35040629 -1.2331185 4280688933
5.7116351 0.31669086 -1.237914 4284770158
1.8699865 0.091391742 -0.37844676 4282394662
1.867587 0.079789199 -0.37779284 4282329374
1.8514618 0.067711569 -0.37408727 4282394913
1.8479403 0.056228742 -0.37321541 4282722590
1.8443481 0.044791684 -0.37234351 4284301362
1.8123872 0.032869376 -0.36515039 4284762422
1.7052083 0.020390935 -0.34117338 4284302132
1.709205 0.0099529903 -0.34204528 4280488973
1.6945947 -0.00054011232 -0.33877566 4280819482
1.6945596 -0.010937939 -0.33877566 4281016607
1.7081228 -0.021497959 -0.3418273 4281213986
1.7079588 -0.031978399 -0.3418273 4281147936
1.7087061 -0.042481221 -0.34204528 4280950557
1.7298745 -0.053615503 -0.34684068 4280819229
1.7334141 -0.064371049 -0.34771258 4280557088
5.7619762 -0.24666636 -1.2483766 4279834907
5.6774969 -0.27797681 -1.2298489 4280887852
5.6932254 -0.31377119 -1.2337724 4285230192
5.6941152 -0.34887668 -1.2344264 4284177756
5.6334419 -0.37988088 -1.2213479 4285229931
5.649498 -0.41579714 -1.2254895 4285557867
5.6653256 -0.45192468 -1.2296309 4284900707
5.693562 -0.48934591 -1.2366061 4285230190
5.6923962 -0.52445042 -1.2370421 4285296755
5.6900425 -0.55946374 -1.23726 4285756024
5.6913557 -0.59487289 -1.2383499 4284768101
5.6885686 -0.62989044 -1.2385678 4286940048
5.7039838 -0.66704625 -1.2429273 4279836210
5.7172194 -0.7041766 -1.2468508 4279969851
5.7215023 -0.74036902 -1.2488126 4280165697
5.7226543 -0.77624744 -1.2501204 4284311141
4.750515 -0.67429173 -1.0319295 4285888890
5.7281451 -0.84870034 -1.253608 4280428081
5.7151132 -0.88264143 -1.2518642 4281676357
5.704772 -0.91691869 -1.2507743 4284634714
4.7951078 -0.80111057 -1.0460978 4281147415
4.7852945 -0.82968521 -1.0450079 4281871392
4.7858768 -0.86006594 -1.0463157 4281608998
4.7901053 -0.89119822 -1.0484954 4280822059
5.5723681 -1.0719583 -1.2276692 4280035895
5.5436687 -1.1017584 -1.2226558 4279905077
5.5176826 -1.1318349 -1.2182964 4280560697
5.4982204 -1.1630462 -1.2154627 4280492073
4.767189 -1.0391679 -1.0500213 4281345573
4.7511997 -1.0662644 -1.0478415 4282332208
4.7797546 -1.1035118 -1.0559065 4281807919
5.3236785 -1.2634062 -1.1823308 4282401332
5.2864308 -1.2888877 -1.1755737 4291741874
5.0303631 -1.2592623 -1.1184647 4290616469
4.8826332 -1.2542008 -1.0862048 4286735973
4.7729135 -1.2573106 -1.0626637 4281276953
4.7453213 -1.2812355 -1.0580863 4281146139
4.6762252 -1.2934312 -1.043918 4281213474
4.1761193 -1.1828635 -0.9297002 4281082143
4.78093 -1.3857385 -1.0720365 4279239936
4.8125744 -1.4269682 -1.0814093 4291212197
4.9522395 -1.5014611 -1.1160671 4287988337
5.021246 -1.5560688 -1.1343768 4287005815
3.1192479 1.0738808 -0.73810345 4293716969
3.1257787 1.0547211 -0.73810345 4282790439
3.1377363 1.0373542 -0.73948073 4283386173
4.092658 1.187735 -0.96511871 4282136631
4.0876956 1.1591495 -0.96213466 4282464053
4.1059866 1.1371626 -0.96488911 4280886304
4.1570482 1.1238822 -0.97567755 4283254082
4.1629248 1.0981057 -0.97544795 4283584330
4.1790104 1.0749656 -0.97774345 4282398261
4.997458 1.2527754 -1.1751479 4282198312
4.9984317 1.2204725 -1.1735411 4282328871
5.0200305 1.1931546 -1.1769842 4281606429
5.0063944 1.157508 -1.1719342 4280488975
5.0077047 1.1254873 -1.170557 4281936674
5.0439944 1.1011726 -1.1776727 4281607456
5.2372823 1.109733 -1.2226627 4281083434
5.3183579 1.0928521 -1.2405668 4280231738
5.3431001 1.0638083 -1.2449281 4280364873
5.3657742 1.0341338 -1.2488302 4280432206
5.4131627 1.0088556 -1.2587005 4280431955
5.4403248 0.97941452 -1.2637503 4279839040
5.4644523 0.9491784 -1.2681116 4288060588
5.5028124 0.92109215 -1.275916 4280693312
5.5391097 0.89226133 -1.2832613 4280434260
5.5733356 0.86272186 -1.2901474 4279841871
5.5958543 0.83108079 -1.2942792 4279841361
5.6133747 0.79851073 -1.2972633 4279579731
5.6335998 0.76615018 -1.3009359 4279645771
5.6603947 0.73444766 -1.3062153 4279708234
5.6860456 0.70232564 -1.3112651 4284509304
5.7163486 0.67048311 -1.3174628 4280168005
5.7416368 0.63775814 -1.3225126 4279841101
5.763834 0.60444355 -1.3268739 4279380297
5.7674341 0.56906599 -1.3268739 4279577157
5.7853546 0.5350104 -1.330317 4279707967
5.7953167 0.50008732 -1.3319237 4280757812
5.7652893 0.46187803 -1.3241194 4281936169
5.7126875 0.42240694 -1.3110356 4280687642
1.8677692 0.12684888 -0.40159759 4286870898
1.8704554 0.11550566 -0.40205666 4282791732
1.8769597 0.10434955 -0.40343392 4283054650
1.872704 0.092591465 -0.4022862 4282134831
1.8732369 0.081099026 -0.4022862 4279700740
1.8639729 0.069244228 -0.3999908 4281607709
1.8322589 0.056817062 -0.39241597 4281869852
1.8413302 0.045789391 -0.39448184 4283578409
1.8269794 0.034220017 -0.39103875 4284631600
1.758056 0.022153685 -0.37474138 4284958772
1.7309071 0.011195848 -0.36831427 4281935645
1.6988243 0.000571488 -0.36073944 4281016350
1.7007424 -0.0098640444 -0.36119851 4280753435
1.7162216 -0.020488821 -0.36487117 4280950815
1.7170366 -0.031036783 -0.36510071 4280819229
1.7168139 -0.04157174 -0.36510071 4281016097
1.7389019 -0.052789368 -0.37038013 4280884509
1.747299 -0.06377954 -0.37244597 4280556316
5.5713482 -0.23844939 -1.2752273 4280361251
5.7797608 -0.28292277 -1.324808 4280032025
5.698226 -0.31398493 -1.3059857 4280885534
5.6903634 -0.34858525 -1.3046085 4284965732
5.688118 -0.38349408 -1.3046085 4284374370
5.6604199 -0.41652966 -1.2986405 4281282351
5.6509666 -0.45071134 -1.2970337 4284835432
5.6859136 -0.48862919 -1.3059857 4284309858
5.6934695 -0.52449089 -1.3085107 4284638823
5.6930499 -0.55970144 -1.3091993 4285098345
5.6885405 -0.59452146 -1.3089697 4284768351
5.6857529 -0.62952173 -1.3091993 4285295472
5.7407517 -0.6712966 -1.3232013 4280494904
5.749083 -0.70805603 -1.3261852 4279903293
5.7513871 -0.74419314 -1.327792 4279510837
5.7496057 -0.77986157 -1.3284807 4281218112
4.7232561 -0.67012048 -1.0851681 4282466374
5.702054 -0.8447938 -1.3195286 4280298805
5.6650209 -0.87486082 -1.3119538 4280168005
5.650898 -0.90821368 -1.3098879 4280493364
4.8378668 -0.80796915 -1.1168447 4280882704
4.8126798 -0.83414638 -1.1120243 4281477410
4.8093867 -0.86400509 -1.1124834 4281674789
4.8604503 -0.90400344 -1.1260263 4280954417
5.516201 -1.0610795 -1.284868 4280167227
5.4838114 -1.0897824 -1.2786704 4280823875
5.427443 -1.113237 -1.2667344 4280230967
5.4309845 -1.1487346 -1.2692593 4282992730
5.3401489 -1.163793 -1.2490598 4280561210
5.3386054 -1.1978165 -1.250437 4278393376
5.3188272 -1.2277044 -1.247453 4293522420
5.2676325 -1.2499769 -1.2368941 4278716165
4.7700481 -1.1628284 -1.1179924 4280687896
4.7411084 -1.186638 -1.112713 4283249971
4.8459177 -1.2445258 -1.1400282 4283710260
4.8588963 -1.2796915 -1.1450781 4293972943
4.8265219 -1.3028841 -1.1391101 4281540125
4.8315692 -1.3361074 -1.1423236 4281409309
4.8326454 -1.3683805 -1.144619 4281145363
4.8540721 -1.4066787 -1.1519643 4287986807
4.8509483 -1.4380964 -1.1533415 4290290843
4.8364449 -1.4661398 -1.1519643 4285617481
4.8357248 -1.4983813 -1.1540302 4285482560
4.8524203 -1.5362521 -1.1604573 4287198824
4.6049042 -1.4890182 -1.1014655 4293517267
4.558713 -1.5050372 -1.0922838 4291741110
4.5521593 -1.533913 -1.0929725 4283581218
4.5555472 -1.5662471 -1.096186 4286475835
4.544014 -1.5935255 -1.095727 4287988565
4.5478978 -1.6262941 -1.0991701 4291476378
4.5323467 -1.6521683 -1.0977929 4291346336
4.513 -1.6765571 -1.0954974 4294965711
4.4935255 -1.7007706 -1.093202 4287592518
4.4993515 -1.7346137 -1.0973338 4286082359
4.4967771 -1.7653903 -1.0993996 4285887823
3.0107689 1.0564923 -0.75131506 4294966256
3.0667493 1.0550672 -0.76431483 4282329110
3.1632864 1.066654 -0.787907 4282000927
3.0951312 1.0225358 -0.76840734 4280229401
4.0786324 1.2376704 -1.0170879 4280626212
4.0833588 1.211792 -1.0163658 4283782477
3.9825954 1.1553159 -0.98844028 4286345581
4.0867176 1.1584122 -1.0134768 4285426279
4.8597884 1.3456125 -1.21064 4285424738
4.8576474 1.3129799 -1.2079918 4283644729
4.8618584 1.2821583 -1.2070289 4283843381
4.8179369 1.2389948 -1.1937884 4284039477
4.8941722 1.2266506 -1.2113621 4284236341
4.8884068 1.1933719 -1.2079918 4283710767
4.8691978 1.1570655 -1.2012511 4283381798
4.8903899 1.1304492 -1.2048622 4283119404
4.90765 1.102764 -1.2075104 4282330663
5.098279 1.1128263 -1.2542132 4280888632
5.2246442 1.1068958 -1.2845459 4280431690
5.2494011 1.0785326 -1.28912 4280367192
5.2778125 1.0506656 -1.2946569 4280367191
5.3089385 1.0230422 -1.300916 4280565337
5.3494644 0.99685633 -1.3095825 4279445047
5.3812709 0.96866202 -1.3160824 4287863969
3.3684914 0.5845896 -0.80788809 4288059820
5.4291277 0.90864855 -1.3252304 4280105046
5.4710126 0.88119143 -1.3343784 4280106075
5.4993358 0.85117316 -1.340156 4280040279
5.5246158 0.8204121 -1.3452115 4279973976
5.5497246 0.78937262 -1.3502669 4280169815
5.5794683 0.75871086 -1.3565261 4279971406
5.6013436 0.72671294 -1.3608594 4282798698
5.6259251 0.69483256 -1.3659148 4280431437
5.6426139 0.66177171 -1.3690444 4279841099
5.6687551 0.62960565 -1.3745813 4279578440
5.6783032 0.59541947 -1.3760257 4279708997
5.7204852 0.56438661 -1.3856552 4279315521
5.7296395 0.52981311 -1.3870996 4279707447
5.7511544 0.49623576 -1.3916736 4282466635
5.7715058 0.46233654 -1.3960068 4281345583
5.7790737 0.42727333 -1.3972105 4279637025
1.8471552 0.12438062 -0.419099 4280619029
1.9127895 0.11705608 -0.43522832 4282002222
5.7985573 0.32152823 -1.4003401 4279243045
5.8013906 0.28599086 -1.4005808 4279439906
5.8059454 0.25051492 -1.4013031 4279900195
1.8384624 0.067227945 -0.41621014 4285294685
1.830109 0.055674899 -0.41404352 4283185969
1.8100402 0.043936744 -0.40898806 4284366383
1.7986307 0.03261102 -0.40609923 4285089580
1.7269789 0.020666188 -0.38828474 4286932302
1.7047501 0.009924002 -0.3827478 4281672984
1.7086613 -0.00053489523 -0.38371077 4280818967
1.7028024 -0.010985461 -0.38226634 4280819480
1.7075555 -0.021491209 -0.38347003 4281082652
1.7112733 -0.032038186 -0.38443297 4281082654
1.7139554 -0.042608138 -0.38515517 4281016610
1.722393 -0.053388685 -0.3873218 4280753695
1.7336723 -0.064380459 -0.39021063 4280819488
5.7429991 -0.24585778 -1.3856552 4279770919
5.800518 -0.28397468 -1.4003401 4279901989
5.7773452 -0.31839001 -1.3950438 4280295717
5.7820644 -0.35424721 -1.396729 4280624169
5.7826877 -0.38991395 -1.3974513 4279506716
5.6901631 -0.41878158 -1.3750628 4280033573
5.6671681 -0.45207128 -1.3700073 4280164907
5.7832346 -0.49703449 -1.3996179 4279506979
5.7752428 -0.53206617 -1.3984143 4279770151
5.7747674 -0.56777668 -1.3991364 4279770666
