# .PCD v0.7 - Point Cloud Data file format
VERSION 0.7
FIELDS x y z rgb
SIZE 4 4 4 4
TYPE F F F U
COUNT 1 1 1 1
WIDTH 1102
HEIGHT 1
VIEWPOINT 0 0 0 1 0 0 0
POINTS 1102
DATA ascii
5.9513497 0.88493276 -0.85746634 4289242273
5.6971841 0.81138986 -0.81843412 4285030240
6.036243 0.82199109 -0.86866051 4279244573
6.0676556 0.78838396 -0.87263739 4282863452
6.0674701 0.75053066 -0.87190092 4281220420
6.0729442 0.71340281 -0.8720482 4284051552
5.7134943 0.63559067 -0.81755036 4284050267
5.7831922 0.6074574 -0.82741886 4280561457
6.0879989 0.60179138 -0.87249011 4281810249
6.06991 0.56241304 -0.8692497 4280757561
6.0732465 0.52515817 -0.8692497 4281484376
6.0388904 0.48486817 -0.86365259 4281354589
6.049643 0.4483915 -0.86483091 4281947239
6.0473461 0.41092697 -0.8640945 4283129193
6.0616002 0.37454769 -0.86586195 4286674798
6.0756345 0.33800894 -0.86762947 4292919717
6.0815458 0.30091947 -0.86821866 4290880391
5.9864383 0.25938326 -0.85378408 4290090366
1.8188339 0.066812836 -0.23250836 4286741353
1.8132781 0.055466142 -0.2316246 4284435250
1.8244607 0.044611972 -0.23324481 4283777837
1.7584429 0.032160513 -0.22337627 4283316518
1.7042112 0.020673065 -0.21527526 4282528807
1.687492 0.010103487 -0.2127713 4281280542
1.7033477 -0.00024232682 -0.21512794 4281083165
1.6934233 -0.010638572 -0.21365505 4280623133
1.6864029 -0.020947834 -0.21262401 4280491295
1.6832759 -0.031242017 -0.21218213 4280557086
1.6800861 -0.041498609 -0.21174026 4280360218
1.6956182 -0.052283458 -0.2140969 4280228887
5.5778675 -0.20357086 -0.79265809 4289901485
5.844317 -0.24915546 -0.83257407 4287729539
5.8584852 -0.28577873 -0.83493078 4288911757
5.8200798 -0.31972033 -0.82948095 4291215287
5.7854285 -0.35344192 -0.82462037 4285227864
5.7900591 -0.38939717 -0.82565141 4284042307
5.8408294 -0.42881706 -0.83360511 4288779653
5.8321724 -0.464178 -0.83272135 4286282342
5.8124614 -0.49852127 -0.83021742 4284899926
5.8023982 -0.53354394 -0.82918638 4288322695
5.7832646 -0.56759411 -0.82682973 4289310102
5.7718029 -0.60224926 -0.82565141 4290494376
5.7719316 -0.63808703 -0.82624054 4285425744
4.7628698 -0.5563429 -0.67556131 4283911996
4.7289329 -0.58182013 -0.67099524 4284107572
4.7036929 -0.60804099 -0.66775483 4284370746
4.673409 -0.63331133 -0.66377795 4285752915
4.6312413 -0.65656978 -0.65803361 4283779125
4.6144052 -0.6830945 -0.65611881 4284173369
4.575912 -0.70612419 -0.6509636 4284041009
4.5509844 -0.73089969 -0.64787048 4283580458
4.5395846 -0.75767219 -0.64683944 4282331682
4.5348501 -0.78551227 -0.64683944 4280029704
4.7032409 -0.84439141 -0.67305732 4282006066
4.6843567 -0.87070692 -0.67099524 4280361510
5.7328458 -1.1017605 -0.83080661 4290620319
5.7230673 -1.1363385 -0.8303647 4289367682
5.7702508 -1.1825426 -0.83861303 4281865988
5.7522411 -1.2156785 -0.83699286 4288446580
5.7311425 -1.2480069 -0.83493078 4282462765
5.7436461 -1.287689 -0.8380239 4287725425
5.7202153 -1.3193535 -0.83566719 4287592804
5.7216368 -1.3567073 -0.83714014 4287789413
5.7064776 -1.3901517 -0.8361091 4287789413
5.7093549 -1.4280175 -0.83787656 4288977285
5.6851559 -1.4590915 -0.83551991 4282072880
3.7672822 1.0926292 -0.59377366 4281872681
4.0949717 1.1604429 -0.64758056 4291676605
4.4179139 1.2226937 -0.7004323 4280491795
4.1317782 1.1162817 -0.65140116 4289900458
4.1366401 1.0904057 -0.65108275 4284112729
4.0619774 1.0441194 -0.63755143 4283851863
4.8482256 1.1200622 -0.76363152 4284897365
4.9840856 1.1192697 -0.78496325 4283054902
5.0178671 1.0945561 -0.7894206 4284110674
5.5846853 1.1823026 -0.88175195 4289109903
5.6663003 1.1632961 -0.89400977 4288184422
5.6926975 1.1323571 -0.89719361 4288906344
5.6888742 1.0953536 -0.89544249 4289038189
5.6877232 1.0589815 -0.89416897 4290089847
5.6814828 1.0217915 -0.89209944 4290353020
5.6983447 0.98876721 -0.89385056 4289432685
5.7004099 0.95313329 -0.89321381 4289826925
5.7032266 0.91766798 -0.89273626 4290286454
5.6980176 0.88099772 -0.89098513 4290419080
5.6388626 0.8364622 -0.88047844 4291408554
3.4905844 0.49606949 -0.52977848 4282596153
5.700551 0.77424014 -0.8889156 4281212700
5.6885495 0.73709214 -0.88620937 4283447090
5.6782684 0.70036221 -0.88382149 4284830026
5.6540227 0.66217941 -0.87920493 4283978306
5.6216736 0.6234507 -0.8733148 4280888086
5.6882343 0.59551972 -0.88350308 4281018399
5.7025886 0.56166989 -0.8852542 4284107590
5.7059274 0.52666891 -0.8852542 4287657314
5.7198715 0.49257907 -0.88700533 4289695082
5.7001514 0.4556655 -0.88334388 4289760613
5.7166238 0.42169732 -0.88557261 4290024304
5.7033443 0.38554853 -0.88302553 4288840812
5.696734 0.35000193 -0.88159281 4287788124
5.695817 0.3148776 -0.8811152 4289364072
5.6986275 0.27997115 -0.8812744 4281077511
5.7120738 0.24550767 -0.88318473 4281669909
1.826344 0.067537725 -0.25596818 4286608474
1.8148825 0.055967592 -0.25405788 4284500012
1.8517089 0.045724683 -0.25994799 4283120168
1.7650915 0.032768503 -0.24593912 4282922789
1.717875 0.021359066 -0.23829789 4283185963
1.7002034 0.010710106 -0.23543243 4281213979
1.7041863 0.00027739411 -0.23606922 4280688925
1.7011943 -0.010160935 -0.23559164 4280557597
1.6971511 -0.020550355 -0.23495488 4280426011
1.6851482 -0.030744653 -0.23304455 4280491804
1.6878885 -0.041156828 -0.23352213 4280163611
1.693525 -0.051694833 -0.2344773 4280228632
5.6710515 -0.20885968 -0.87633944 4290092935
5.6696634 -0.24365266 -0.87633944 4290221166
5.6739774 -0.27872753 -0.8772946 4289957743
5.654417 -0.3125551 -0.87442917 4289696637
5.6612616 -0.34778953 -0.87586188 4284630826
5.6462164 -0.3816534 -0.87379235 4289104752
5.6654286 -0.41788995 -0.8772946 4289826163
5.6716142 -0.45335308 -0.87872732 4290350702
5.6628246 -0.4876363 -0.87777215 4290219113
5.6508784 -0.52155638 -0.87633944 4289890918
5.6485543 -0.55631649 -0.87649864 4289299035
5.6528893 -0.59178776 -0.87777215 4287652927
4.8337536 -0.53598213 -0.74548364 4287062599
4.8068414 -0.56287378 -0.74166304 4281866243
4.772922 -0.5886091 -0.73672807 4284633144
4.7310381 -0.61293411 -0.73051959 4284896569
4.6939278 -0.63743216 -0.72510707 4285751108
4.6566949 -0.66149795 -0.7196945 4286672210
4.6281352 -0.6864354 -0.71571469 4284632627
4.5935912 -0.71014184 -0.71077979 4284370998
4.569653 -0.73517627 -0.70759594 4283911994
4.5514245 -0.76092112 -0.70536727 4283780668
4.5408335 -0.78782076 -0.7044121 4281214491
4.6748595 -0.84066582 -0.72717655 4281542941
4.6880536 -0.872769 -0.73020118 4282133281
5.5967817 -1.0775958 -0.88031924 4288775284
5.5871601 -1.1113387 -0.87984169 4290221436
5.602478 -1.1501679 -0.88350308 4290089077
5.6030421 -1.1861587 -0.88477665 4289762177
5.5975876 -1.2209369 -0.885095 4280225287
5.4792171 -1.2303774 -0.86678791 4288580736
5.6014214 -1.2939816 -0.88827884 4289957500
5.5530343 -1.3187435 -0.88159281 4287193162
5.5294924 -1.3490465 -0.87904572 4286473551
5.5278149 -1.3846289 -0.88016003 4287593065
5.5211267 -1.4190127 -0.88047844 4285949526
5.5285444 -1.4571414 -0.88318473 4286742133
4.1124883 -1.1924863 -0.65171951 4285429102
4.0899506 -1.2132041 -0.64917248 4283122750
3.976578 -1.2596524 -0.63389003 4281285433
3.6263621 1.1002924 -0.6183902 4290362547
3.6594911 1.0858768 -0.62317532 4279506704
4.0943422 1.1605759 -0.69922471 4287269506
4.0994868 1.1349052 -0.69888288 4279045381
4.138711 1.1184784 -0.70469344 4283717973
4.1254897 1.0877819 -0.70110458 4284245859
4.7021046 1.117318 -0.79937059 4279639318
5.071723 1.17241 -0.8639698 4288121990
5.0374866 1.1319703 -0.85662121 4290027671
5.0472255 1.1016706 -0.85713387 4286605665
5.1888289 1.0992998 -0.88105953 4291539881
5.6287999 1.1565694 -0.95779246 4287460194
5.6328917 1.1214322 -0.95727974 4292788659
5.62709 1.0844219 -0.9550581 4291537822
5.6278262 1.04879 -0.95403272 4290813840
5.6244588 1.0124911 -0.95232373 4290878602
5.6208582 0.97627288 -0.95061475 4291338640
5.6199408 0.94062567 -0.94941849 4292719523
5.6110158 0.9037714 -0.94685501 4292194721
5.606719 0.86781681 -0.94514608 4292262323
5.5953703 0.83093435 -0.94224077 4280026884
5.5993886 0.79644728 -0.94206989 4281475353
5.6129565 0.76327169 -0.94360799 4282198556
5.6126485 0.72818208 -0.94275349 4284895039
5.6150556 0.69348776 -0.94241172 4286013780
5.6094193 0.65787166 -0.94070274 4281606940
5.612371 0.62333161 -0.94053185 4280752398
5.6053114 0.58775055 -0.93865198 4287200371
5.5990067 0.55237657 -0.93694299 4282199077
5.606215 0.51837498 -0.93762654 4287459426
5.6034007 0.4834567 -0.93660116 4287459675
5.6092076 0.44930241 -0.93711388 4284959793
5.6098943 0.41473082 -0.93677211 4282854166
5.6044688 0.37976685 -0.9354049 4282723617
5.6027598 0.34512818 -0.93472129 4281474840
5.592967 0.31008679 -0.93267053 4281672219
5.5927963 0.27566573 -0.93232876 4281211920
5.6052108 0.2418132 -0.93420863 4282330654
1.8247105 0.066716336 -0.27779168 4286734925
1.8191767 0.055335332 -0.2767663 4280813312
1.8352417 0.044564757 -0.27950063 4279763968
1.7596266 0.03187849 -0.26634154 4280885526
1.7371293 0.020794524 -0.26241091 4282331943
1.6978134 0.0098788664 -0.255575 4281214240
1.7017833 -0.00053744612 -0.25625861 4280820511
1.6928806 -0.010928261 -0.25472051 4280557597
1.6799738 -0.02116294 -0.25249887 4280426266
1.6748868 -0.031381816 -0.25164437 4280492059
1.6805726 -0.041801028 -0.25266975 4280163608
1.6714211 -0.051843312 -0.25113168 4280032793
5.5682549 -0.20419243 -0.92754364 4282529836
5.586585 -0.23919359 -0.93096155 4281867805
5.5791073 -0.27317983 -0.92993617 4280419332
5.5714235 -0.30708334 -0.92891079 4281077775
5.5900869 -0.34252432 -0.93249965 4283381559
5.5583882 -0.3748354 -0.92737275 4285881693
5.5864458 -0.41116962 -0.93267053 4280289027
5.6005149 -0.44676811 -0.93557578 4280222464
5.609448 -0.48213387 -0.93762654 4280880647
5.6054034 -0.5164535 -0.93745565 4280880134
5.5864391 -0.54929852 -0.93472129 4281933849
5.6055036 -0.58591717 -0.93865198 4283775026
4.9084396 -0.54366869 -0.81765658 4285154098
4.8639088 -0.56897783 -0.81047893 4281009664
4.816319 -0.59340036 -0.8027885 4281144840
4.7891355 -0.61991167 -0.79868698 4285224254
4.6436672 -0.63011098 -0.77390689 4285422913
4.6319094 -0.65748632 -0.77253968 4286607187
4.6170664 -0.68430847 -0.7706598 4285423175
4.6088858 -0.71202457 -0.7699762 4284896829
4.591783 -0.73826069 -0.76775455 4284963910
4.5784202 -0.76496238 -0.76621646 4280753938
4.588203 -0.79556191 -0.76877993 4280228883
4.5987515 -0.82648426 -0.7715143 4279702541
4.7137141 -0.87700462 -0.7927056 4282201646
5.6574469 -1.0883065 -0.96035594 4280490263
5.669991 -1.1268369 -0.96377385 4280292885
5.624361 -1.1536945 -0.95693797 4280422931
5.6036806 -1.1853312 -0.95454544 4280093447
5.5991898 -1.2203214 -0.9550581 4279503368
5.5502548 -1.2453871 -0.9477095 4281543465
5.364893 -1.2384572 -0.91609347 4279897351
5.5412655 -1.3149946 -0.94890583 4289627243
5.4842706 -1.337078 -0.94019002 4291072883
5.4157443 -1.3556435 -0.92942351 4286733886
5.401598 -1.3873789 -0.92839813 4287853913
5.3853607 -1.4184903 -0.92703092 4286538573
5.3813124 -1.4527905 -0.92788541 4285753175
4.0379753 -1.1170585 -0.68777454 4288714642
4.0263047 -1.1404727 -0.68692011 4283975234
4.0192313 -1.1651562 -0.68692011 4284500289
4.0299554 -1.1951133 -0.69016713 4283185201
3.9904857 -1.2101057 -0.68435663 4284635735
4.0215745 -1.2465173 -0.69136339 4282072119
3.5081029 1.0885454 -0.64496332 4282730048
3.5401158 1.0747076 -0.64990687 4281942073
4.1761866 1.2119677 -0.77074856 4293784035
4.1438198 1.1750593 -0.76305866 4282991415
4.1168427 1.1401682 -0.75646728 4282661425
4.1351504 1.1179641 -0.75866443 4284374874
4.1666479 1.0990875 -0.76342481 4283786335
4.5526819 1.1413134 -0.8350144 4288325536
5.393363 1.3168718 -0.99485499 4292334007
5.191875 1.2339848 -0.95475757 4283451176
5.1591196 1.1928067 -0.94706762 4280357642
5.09728 1.1456124 -0.93388492 4292661444
5.0465837 1.1017376 -0.92289931 4286344805
5.5100842 1.1675164 -1.0098687 4280817938
5.5402555 1.1384326 -1.014263 4280488975
5.5635281 1.1076791 -1.0173756 4280160261
5.5615311 1.0718473 -1.0157278 4280620814
5.5622048 1.0366219 -1.0146292 4280292109
5.658443 1.0186663 -1.0316569 4279834129
5.7188292 0.99334544 -1.0419102 4279835418
5.7054234 0.95499206 -1.0382483 4280558377
5.6995292 0.918091 -1.0360512 4286874002
5.7283716 0.88670969 -1.0404453 4279374883
5.6967521 0.84605885 -1.0334878 4279574055
5.7135158 0.81274891 -1.0356849 4279641388
5.7067056 0.77608722 -1.0334878 4279575595
5.7055106 0.74029833 -1.0323893 4279641133
5.7070184 0.70491475 -1.03184 4279575082
5.7053776 0.66919708 -1.0307415 4279837225
5.7064457 0.63385153 -1.0301921 4283190861
5.701427 0.59790331 -1.0285443 4279047961
5.70401 0.56281227 -1.0283612 4279706930
5.6887565 0.52608377 -1.0248824 4279838516
5.6908984 0.49108386 -1.0246993 4280233775
5.6957641 0.45631281 -1.0250655 4283189822
5.7023783 0.42164537 -1.0257978 4282395942
5.6979923 0.38618341 -1.0245162 4282858550
5.6776867 0.34982491 -1.020305 4282991160
1.8505396 0.10288619 -0.30605727 4287062607
1.8452448 0.091239467 -0.30495873 4286403389
1.8339834 0.079407714 -0.30276161 4282655504
1.8226472 0.067717604 -0.30056447 4282327570
1.8023932 0.055897236 -0.29671952 4283711527
1.7879602 0.044473402 -0.29397312 4285813823
1.7616602 0.033010378 -0.2890296 4285747260
1.7382374 0.021908298 -0.28463534 4282723617
1.7068806 0.011045801 -0.27877635 4281280029
1.7118317 0.00057290687 -0.27969182 4280819995
1.6970569 -0.0098418323 -0.27694541 4280491544
1.6979474 -0.020266548 -0.27712852 4280426011
1.6987741 -0.030702565 -0.27731159 4280426266
1.7024848 -0.041221544 -0.27804399 4280228883
1.6982694 -0.051546823 -0.27731159 4280163094
5.7553711 -0.21096776 -1.0334878 4280164129
5.6911073 -0.24358334 -1.0217699 4279573540
5.6767406 -0.27787304 -1.0193896 4283981145
5.6474442 -0.31118327 -1.014263 4284375125
5.6787906 -0.34787554 -1.0204881 4283717195
5.6186786 -0.37880775 -1.0096856 4283980113
5.6731133 -0.41746458 -1.020305 4284442206
5.6724057 -0.45242277 -1.0206712 4283785304
5.6695228 -0.48721945 -1.0206712 4284310110
5.6664267 -0.52199787 -1.0206712 4284900707
5.6768146 -0.5581041 -1.0232346 4284440667
5.6654606 -0.59210783 -1.0217699 4284836705
5.6646523 -0.62718403 -1.0223191 4285231471
5.6997547 -0.66649979 -1.0296428 4281086781
5.6858006 -0.7002579 -1.0278119 4292202962
4.7288618 -0.61181557 -0.84892952 4285159498
4.7250185 -0.64081979 -0.84892952 4286277203
4.7054248 -0.66758913 -0.84600002 4280423693
4.6983223 -0.69601613 -0.8454507 4280557339
4.6881337 -0.72393066 -0.84435219 4280359958
4.669044 -0.75034189 -0.84160578 4280821274
4.6488376 -0.77638417 -0.83867627 4280360469
4.5761814 -0.79313672 -0.82585973 4284899675
4.5267196 -0.81320095 -0.81743741 4287925635
4.5303431 -0.84257966 -0.81908524 4283978308
4.4855075 -0.86274499 -0.81157845 4281149728
4.4984493 -0.89389342 -0.81505722 4282992710
4.4928799 -0.92147845 -0.81505722 4283452489
4.4765615 -0.9467904 -0.81304318 4281014539
4.4629836 -0.97256505 -0.81157845 4290884004
5.4535737 -1.2236203 -1.0018127 4280554500
5.4133949 -1.2495399 -0.99558741 4287530871
5.4017997 -1.2818241 -0.99485499 4285686875
5.0614562 -1.2338911 -0.93113852 4280881161
4.9288602 -1.2336457 -0.90715325 4285223236
5.2735033 -1.3543732 -0.9748978 4284435775
5.2061529 -1.3711773 -0.9635461 4284303942
5.2593336 -1.4197541 -0.97544712 4284237885
4.0983472 -1.1332835 -0.75280541 4285425235
4.0392928 -1.1436741 -0.74273527 4281344019
4.0425858 -1.1714481 -0.74474931 4281475602
4.0730228 -1.2074107 -0.75207305 4281084964
3.3436649 1.0833135 -0.65791303 4286217327
3.3885789 1.07495 -0.66589069 4283649860
3.4119711 1.0593787 -0.66939306 4283255882
4.08566 1.2140219 -0.80618054 4293127652
4.0986834 1.1905732 -0.80734795 4286676850
4.1077986 1.1659378 -0.80773711 4280292877
4.1271625 1.1441207 -0.81026661 4282925118
4.1748157 1.1298045 -0.81863344 4282992971
4.1513233 1.0961454 -0.81240696 4284046938
4.1978641 1.0809366 -0.82057917 4285756786
4.2158337 1.0580269 -0.82291412 4290028693
5.2112193 1.2741795 -1.0248848 4288576862
5.242794 1.2478632 -1.0297492 4289696637
5.0955515 1.1797924 -0.99822772 4282132513
5.1227899 1.1530321 -1.0023139 4285752148
5.2006755 1.1370974 -1.0167125 4280552961
5.3802595 1.141857 -1.0517364 4281802527
5.3919683 1.1098126 -1.0527092 4282328609
5.3794384 1.0728662 -1.0488178 4283054122
5.3888087 1.0403968 -1.0494014 4286015838
5.6226392 1.0498478 -1.0953215 4279636245
5.6473155 1.0186402 -1.0990186 4279573542
5.6737523 0.98750591 -1.1031046 4279574315
5.6922798 0.95478582 -1.1056341 4287796638
5.7057776 0.92109281 -1.1071907 4282072904
5.702599 0.88471031 -1.1054395 4280232508
5.7137408 0.85057086 -1.1066071 4279641661
5.7169104 0.81521869 -1.1062179 4279576381
5.7120862 0.77879798 -1.1042721 4279445561
5.7148123 0.7434811 -1.1038829 4279642172
5.7163463 0.70803934 -1.1032993 4279577149
5.7176604 0.67260677 -1.1027155 4279640622
5.7187552 0.63718474 -1.1021317 4280562235
5.7215819 0.60198033 -1.1019372 4279510840
5.7193108 0.56628096 -1.1007698 4279577408
5.728538 0.53172237 -1.1019372 4279840319
5.7287612 0.49630815 -1.1013534 4286220688
5.7053008 0.45901847 -1.0960999 4284705632
5.7021403 0.42356557 -1.0949324 4283188794
5.6977825 0.38810191 -1.0935704 4281079833
5.6814551 0.35197747 -1.0898734 4280951066
1.7944978 0.099318974 -0.31720915 4280681472
1.7931144 0.088208601 -0.31682 4284694062
1.7926418 0.077161774 -0.31662542 4283052835
1.7764182 0.065535113 -0.31331763 4282921758
1.7885516 0.055003516 -0.31565255 4283646512
1.8270979 0.044994481 -0.32324103 4286342744
1.7449601 0.032206852 -0.3068966 4284172605
1.7127584 0.021078847 -0.30047554 4282134053
1.6902956 0.010414493 -0.29600027 4281214236
1.6844424 3.8601458e-05 -0.29483283 4280688405
1.6863725 -0.010307568 -0.29522198 4280623384
1.6803927 -0.020586776 -0.29405451 4280426264
1.6772926 -0.03084504 -0.2934708 4280228887
1.6760912 -0.041112766 -0.29327622 4280162839
1.6797291 -0.051513821 -0.29405451 4280031508
5.7258463 -0.2079425 -1.0972674 4280822831
5.7038827 -0.24220207 -1.0931813 4278717461
5.6709375 -0.27567831 -1.0869548 4284244063
5.6250648 -0.30806473 -1.0781988 4284638297
5.6749601 -0.34572423 -1.0885113 4285427298
5.5366926 -0.37144101 -1.0614653 4282927168
5.6878996 -0.41662487 -1.0920137 4284967010
5.6842585 -0.45143983 -1.0918192 4285164647
5.6794267 -0.4861424 -1.0914301 4285099624
5.6782899 -0.52116042 -1.0918192 4285165416
5.6769381 -0.55618286 -1.0922084 4284969318
5.6763449 -0.59130973 -1.092792 4285166183
5.6657853 -0.62537611 -1.0914301 4287599243
5.7017884 -0.66477805 -1.0994077 4280231981
5.6985755 -0.69987047 -1.0996022 4280690476
4.722301 -0.60960662 -0.90522009 4283583301
4.7204151 -0.63883322 -0.90560925 4281212698
4.7125216 -0.66723603 -0.90483093 4280359707
5.7000613 -0.84251744 -1.1036884 4279903531
5.6986623 -0.87807328 -1.1044667 4279970090
5.6921988 -0.91286784 -1.1042721 4281611827
4.7227874 -0.78735709 -0.91047364 4281412900
4.4858913 -0.77624106 -0.86377525 4286873716
4.4742851 -0.8025409 -0.86241317 4281148443
4.4856725 -0.83301991 -0.86572099 4281477410
4.4814396 -0.86071247 -0.8659156 4280556823
4.4770365 -0.88838452 -0.86611015 4281017374
4.4705405 -0.91564184 -0.8659156 4282005288
4.4456425 -0.93900609 -0.86202407 4284239930
4.422544 -0.96251619 -0.85852164 4284831549
4.4012394 -0.98620665 -0.85540843 4284174133
4.3893704 -1.0118729 -0.85424095 4284371514
4.3353534 -1.0274889 -0.84451216 4283909682
4.3079991 -1.0489709 -0.84023142 4283711024
4.2881579 -1.0720575 -0.83750737 4287395171
4.2853003 -1.0993229 -0.83828568 4289237627
4.2319889 -1.1133802 -0.82875144 4289368698
5.1769409 -1.3957295 -1.0243011 4286078023
4.1556015 -1.1480075 -0.81590933 4284105256
4.1277132 -1.1676162 -0.81162864 4280816132
4.1091642 -1.1896513 -0.80929375 4280162830
4.0237188 -1.1917436 -0.79314387 4281679928
3.3197079 1.0974917 -0.69793582 4290560178
3.3058994 1.0704726 -0.69339556 4280162316
3.3301277 1.0557843 -0.69731671 4285888370
4.0992975 1.1896611 -0.8607657 4286016875
4.1084027 1.1650196 -0.86117846 4286147173
4.1305618 1.1439663 -0.86448044 4285160539
4.1639519 1.1257479 -0.87025893 4282727739
4.2313337 1.1161441 -0.8834669 4281020208
5.2587171 1.3525952 -1.1057328 4288453788
5.2308507 1.3112645 -1.0978905 4287987819
5.2207375 1.2747355 -1.0939693 4289431908
5.2256045 1.2419989 -1.0933503 4292526249
5.0939393 1.1777419 -1.0632195 4282853924
5.2299514 1.1754199 -1.0910802 4283577372
5.2485366 1.1458108 -1.0935566 4284696102
5.2564259 1.1137877 -1.093763 4285220655
5.2717867 1.0832859 -1.0956204 4291010449
5.3656631 1.0682991 -1.1144005 4280553479
5.5258455 1.0649722 -1.1474205 4280493096
5.556324 1.0355264 -1.1525799 4279312940
5.5847225 1.0053998 -1.1573265 4279640886
5.6091037 0.97429401 -1.1612476 4286874255
5.6275215 0.94195789 -1.1639305 4279309601
5.6273994 0.90647709 -1.1626923 4279773491
5.6792703 0.87911242 -1.1725982 4279380021
5.6961713 0.84597266 -1.1750748 4279379254
5.7215986 0.81389815 -1.1794087 4279576631
5.7381191 0.78035718 -1.1818851 4279511354
5.7427998 0.74513406 -1.1818851 4279511364
5.7404656 0.70904374 -1.1804405 4279706677
5.7349901 0.67266834 -1.1783768 4283126111
5.7360921 0.63714254 -1.1777576 4279642677
5.7437859 0.60234255 -1.1785831 4279446846
5.759059 0.56824011 -1.1810596 4279315006
5.7361302 0.53046155 -1.1754875 4279840319
5.7577991 0.4968524 -1.1794087 4287731346
5.7051449 0.45706365 -1.1676452 4283121197
5.6961317 0.42118388 -1.1651688 4288317564
1.8453982 0.12533422 -0.35060671 4283118630
1.8373427 0.11346773 -0.34874934 4281277972
1.8438662 0.10251656 -0.3499876 4280885273
1.8493472 0.09144146 -0.35101947 4280621842
1.8371651 0.07954479 -0.34833661 4281015570
1.7955729 0.066717438 -0.33946246 4282922536
1.8194206 0.056421664 -0.34441549 4281606676
1.8031037 0.04484681 -0.3409071 4282001174
1.7573645 0.032930821 -0.33120748 4282791201
1.7409008 0.021941274 -0.3276991 4282266401
1.7047998 0.011032807 -0.32006323 4281280282
1.7019 0.0005718235 -0.31944409 4280754198
1.7008929 -0.0098649524 -0.31923774 4280557591
1.6929733 -0.020206045 -0.31758672 4280492057
1.6889042 -0.030521939 -0.31676123 4280229401
1.6903585 -0.051304907 -0.31717399 4279768853
5.7978077 -0.21252619 -1.1841552 4280097816
5.7211218 -0.24487001 -1.1682644 4278520074
5.6608734 -0.27709526 -1.1558819 4285098856
5.6981463 -0.31398052 -1.1641369 4284769118
5.6453271 -0.34582329 -1.1534054 4283847241
5.6499329 -0.38091707 -1.15485 4283058750
5.6543198 -0.41608033 -1.1562946 4285625192
5.6916504 -0.45395902 -1.1647561 4285559660
5.6877828 -0.48878998 -1.1645496 4285099624
5.6788306 -0.52314138 -1.1633114 4285165416
5.6901207 -0.55941319 -1.166407 4285230693
5.6797686 -0.59360421 -1.1649624 4283520077
5.6536517 -0.6259653 -1.1602157 4283651151
5.719677 -0.66883069 -1.1750748 4279771943
5.7280898 -0.70546907 -1.1777576 4279642677
5.729476 -0.74135643 -1.1789958 4279708984
5.7238493 -0.77636635 -1.1787895 4280100144
5.7180095 -0.81133509 -1.1785831 4283519574
5.716795 -0.84697872 -1.1794087 4279179547
5.7269621 -0.88443083 -1.1827106 4279971117
5.7165971 -0.91877747 -1.1816788 4280757545
4.7882233 -0.79967415 -0.9843843 4281347107
4.768765 -0.82653141 -0.98128867 4281412381
4.7819014 -0.85906518 -0.98520982 4280755481
5.6278763 -1.0468005 -1.1678517 4280691502
5.6146212 -1.0800185 -1.166407 4280363307
4.7643189 -0.94674802 -0.98500335 4280953378
4.781424 -0.98068357 -0.98995638 4280755999
4.7858472 -1.0122313 -0.99222648 4281150239
4.9353771 -1.07555 -1.0258657 4280952349
5.0002885 -1.1218837 -1.0413438 4280163608
4.9933109 -1.1525438 -1.0413438 4279768334
4.986145 -1.1831604 -1.0413438 4281806115
4.3086076 -1.0503012 -0.89584941 4284367414
4.2859454 -1.0726786 -0.89234108 4285025085
4.2603292 -1.0940872 -0.88821357 4286866517
4.2317734 -1.1144739 -0.8834669 4287722070
4.2012391 -1.1340418 -0.87830758 4284696369
4.1715689 -1.1535379 -0.87335455 4284632116
4.1512322 -1.1753794 -0.87046528 4283054377
4.7190905 -1.3675507 -0.99676681 4281608487
5.0567679 -1.4991302 -1.0729191 4282138939
3.1834588 1.0734639 -0.71063745 4289240982
3.1927652 1.0548298 -0.71129137 4280755999
4.0898094 1.1864506 -0.91139048 4284636765
4.1007681 1.1623993 -0.91226238 4285821542
4.1078234 1.1372155 -0.91226238 4282795578
4.1580601 1.1237131 -0.92228913 4282796099
4.1837487 1.1031604 -0.92664862 4284178775
5.0817099 1.3068936 -1.132197 4289633924
5.0792198 1.2730758 -1.1297994 4294958800
5.0812478 1.2404963 -1.1284915 4292127128
5.1087022 1.2140379 -1.1330689 4290879114
5.0675631 1.1714474 -1.1219523 4290879114
5.1175027 1.1499697 -1.1317611 4289692502
5.1320901 1.1202143 -1.1335049 4291203683
5.1426854 1.0895133 -1.1343768 4290878601
5.3614936 1.1015882 -1.1827668 4280229404
5.4112229 1.0772539 -1.1925756 4279903270
5.4416881 1.048653 -1.1980249 4279575861
5.4681673 1.0190026 -1.2026023 4279970100
5.4973683 0.98958588 -1.2078336 4283125333
5.5321827 0.96085232 -1.2143729 4282399302
3.3780513 0.5649215 -0.72524166 4279835945
5.5975137 0.90159369 -1.2265793 4279183674
5.6260862 0.87081861 -1.2318107 4279446074
5.6458039 0.83843452 -1.2350802 4279446074
5.6692004 0.80639184 -1.2392217 4279576897
5.6982174 0.77488375 -1.2446711 4279380031
5.7086711 0.74066007 -1.245979 4279181360
5.7276373 0.70741582 -1.2492485 4284837493
5.7454395 0.67385268 -1.2523001 4279312686
5.7446165 0.63804698 -1.2512102 4279446076
5.755218 0.60350055 -1.2527361 4279249467
5.7617259 0.56846386 -1.25339 4279642166
5.7670488 0.53328001 -1.2538259 4279641905
5.7566004 0.49670669 -1.2507743 4283784544
5.7245178 0.45856297 -1.2429273 4282729535
1.8584208 0.13660657 -0.37648499 4284701770
1.8621453 0.12539949 -0.37713891 4282329637
5.6998434 0.35112876 -1.2357342 4286613116
5.6765547 0.3147386 -1.2300669 4284969839
1.8670622 0.091247 -0.37779284 4280819218
1.870512 0.079916 -0.37844676 4280949777
1.8729179 0.06850981 -0.37888271 4282133535
1.8401364 0.055986352 -0.37147161 4283119658
1.8599585 0.045180693 -0.37583107 4284368944
1.7196879 0.031128399 -0.34444296 4283777320
1.7120395 0.020477304 -0.3426992 4282529058
1.7072532 0.0099402899 -0.34160933 4281543969
1.6848352 -0.00054373196 -0.33659595 4280951577
1.6926076 -0.010926687 -0.33833972 4280754200
1.6905569 -0.021288898 -0.3379038 4280622616
1.6864913 -0.031591151 -0.3370319 4280490776
1.6911441 -0.042056616 -0.33812177 4280162839
1.6976827 -0.052639514 -0.33964756 4280031508
5.7385745 -0.24566929 -1.2431452 4279769110
5.6804214 -0.27811939 -1.2305028 4281413676
5.7000465 -0.31414571 -1.2352983 4285492841
5.6970377 -0.34905514 -1.2350802 4281939503
5.6100717 -0.37830982 -1.2161167 4284571223
5.6300316 -0.41436845 -1.22113 4283584844
5.6828375 -0.45331797 -1.2335545 4284900705
5.6828656 -0.4884288 -1.2342083 4285032550
5.6865649 -0.5239144 -1.2357342 4285033063
5.6890712 -0.55936843 -1.2370421 4285163360
5.6913557 -0.59487289 -1.2383499 4285229669
5.6846886 -0.62946159 -1.2376959 4280757295
5.7291875 -0.66998845 -1.2485946 4279378216
5.7288437 -0.70560592 -1.2494664 4279904309
5.7302132 -0.74149442 -1.2507743 4278192651
5.7274899 -0.77690238 -1.2512102 4284770908
4.7128291 -0.66895193 -1.0234286 4284769889
5.7069054 -0.84555775 -1.2488126 4280102967
5.693893 -0.87936854 -1.2470688 4279445294
5.6883907 -0.91428912 -1.2470688 4284442723
4.7845187 -0.79934406 -1.0437001 4280953374
4.7929878 -0.8310172 -1.0467516 4281214751
4.7868376 -0.86023837 -1.0465337 4280558367
5.5817199 -1.0382816 -1.2283231 4280431167
5.5378652 -1.0653282 -1.2198222 4280103752
5.5149508 -1.0960571 -1.2161167 4280498251
5.490912 -1.1263492 -1.2121931 4281613896
5.4017787 -1.1426667 -1.1934475 4281677368
4.7786322 -1.0416595 -1.052637 4280492574
4.772151 -1.0709609 -1.052637 4281347115
4.7749996 -1.1024152 -1.0548167 4279506199
5.2818947 -1.2534995 -1.17274 4293783530
5.2390194 -1.2773391 -1.164675 4282927166
4.9868102 -1.2483702 -1.108438 4280489226
4.9327354 -1.2670583 -1.0977573 4283250466
4.7804642 -1.2592977 -1.0644075 4280093441
4.7698207 -1.2878439 -1.0637536 4280358680
4.8201518 -1.3332036 -1.0772679 4279898127
4.8550782 -1.3749775 -1.0872946 4281409825
4.9121714 -1.423745 -1.1025528 4282200104
4.9557447 -1.4693832 -1.1147592 4283448106
4.9428992 -1.4986315 -1.1138873 4284633154
4.8748775 -1.5107454 -1.100155 4282532929
3.1137261 1.0719804 -0.73672622 4288580997
3.1230118 1.0537879 -0.73741484 4279571207
4.0591669 1.205071 -0.95869154 4285560436
4.0786366 1.1836672 -0.96167558 4286475635
4.0577307 1.1506554 -0.9547894 4282329901
4.1116147 1.1387206 -0.96626633 4284372302
4.1833568 1.1309923 -0.9821046 4285293657
4.1845708 1.1038134 -0.98072737 4283712313
4.9925051 1.2841429 -1.1758364 4284364584
4.9870729 1.2501729 -1.1726229 4282128394
4.9738479 1.2144717 -1.1675731 4280419328
4.9878345 1.1855049 -1.1691798 4280225027
4.9836349 1.1522478 -1.1664253 4281144343
4.99441 1.1225004 -1.1673435 4280948756
5.0620623 1.1051155 -1.182034 4280162063
5.2782259 1.1184055 -1.2325329 4280230944
5.3059635 1.0903062 -1.2375828 4279904823
5.3373728 1.0626684 -1.2435508 4280101175
5.3724647 1.0354227 -1.250437 4279574580
5.3968964 1.0058253 -1.2547983 4288127402
5.4317036 0.97786307 -1.2616845 4278455831
5.4606166 0.94851238 -1.2671934 4280365636
5.5076122 0.92189527 -1.2770637 4279774526
5.542953 0.8928802 -1.2841794 4279709248
5.5685267 0.86197776 -1.2889998 4279512639
5.5871892 0.82979459 -1.2922133 4279447103
5.612411 0.7983737 -1.2970337 4279249726
5.6355286 0.76641232 -1.3013949 4279446846
5.6594296 0.73432249 -1.3059857 4284311408
5.6812158 0.70172942 -1.3101175 4280231730
5.6960483 0.66810346 -1.3126425 4279510586
5.7387342 0.63743597 -1.3218241 4279576381
5.742538 0.60221171 -1.3218241 4279510838
5.7848687 0.57078511 -1.3310056 4279445045
5.7785707 0.53438348 -1.3287102 4279247145
5.7865891 0.49933481 -1.3298579 4281479469
5.7594681 0.46141207 -1.3227422 4282659378
5.7612205 0.42599225 -1.3225126 4284638305
1.8658271 0.12671737 -0.40113851 4283580476
1.8626837 0.11502735 -0.40022033 4283515461
1.8682134 0.10386511 -0.40136805 4287072127
1.8658992 0.092256419 -0.40067941 4286611322
1.8605957 0.080554359 -0.39930218 4285491815
1.861055 0.069136433 -0.39930218 4284898133
1.8429602 0.057146642 -0.39494091 4282857256
1.8530062 0.046077296 -0.39723632 4283316770
1.8026512 0.033769481 -0.38530022 4284236844
1.6821445 0.021213783 -0.35683724 4283645483
1.6987889 0.010995267 -0.36073944 4281672732
1.6851982 0.0005700016 -0.35752589 4280885273
1.6812768 -0.0097467275 -0.35660771 4280622616
1.6860515 -0.020121852 -0.35775542 4280556823
1.6868694 -0.030484701 -0.35798496 4280491028
1.6905427 -0.040929683 -0.35890311 4280228374
1.6931782 -0.051391136 -0.35959172 4280096788
1.6967216 -0.061922189 -0.3605099 4279834644
5.7687464 -0.2469116 -1.3218241 4279901727
5.7651787 -0.282208 -1.3213649 4280163611
5.7079444 -0.3145211 -1.3082812 4284307541
5.7117362 -0.34989595 -1.3096584 4284966497
5.688118 -0.38349408 -1.3046085 4283914574
5.6827455 -0.41817403 -1.3039199 4284243277
5.6664901 -0.45195052 -1.3007063 4284243539
5.7208233 -0.49163163 -1.3142492 4284375386
5.7128534 -0.5262779 -1.3131015 4284638305
5.7221084 -0.56256026 -1.3160855 4285493612
5.7466216 -0.60059565 -1.3227422 4285230695
5.7486324 -0.63648802 -1.3241194 4282862921
5.7504191 -0.67242765 -1.3254967 4279312673
5.7539129 -0.70865119 -1.327333 4279116072
5.7475262 -0.74369329 -1.3268739 4280036920
5.7216363 -0.77606601 -1.3218241 4281087544
4.7145834 -0.66888934 -1.0831022 4281153337
5.6693196 -0.83994174 -1.3117243 4280497473
5.6486692 -0.87233442 -1.3080516 4279905328
5.6287961 -0.90465993 -1.3046085 4283917143
4.8052273 -0.80251539 -1.1090403 4281413913
4.8155565 -0.83464527 -1.112713 4281741087
4.8055549 -0.86331642 -1.1115652 4281346085
5.508255 -1.0245422 -1.281425 4281154374
5.4817934 -1.0544586 -1.2766047 4281289561
5.4752197 -1.0880743 -1.2766047 4278589987
5.3740506 -1.1022817 -1.2538801 4293918719
5.3433805 -1.1301986 -1.2481416 4278194961
5.3363452 -1.1629637 -1.2481416 4290764502
5.319612 -1.1935536 -1.2458463 4289778636
5.2789965 -1.2185076 -1.2378123 4290633170
5.24964 -1.245706 -1.2325329 4292339934
4.8371849 -1.1792004 -1.1342897 4279112973
4.7533822 -1.1897111 -1.1156969 4281413410
4.7865281 -1.2292686 -1.1255672 4281937436
4.8381901 -1.2742363 -1.1400282 4281211668
4.8387375 -1.3061825 -1.1420941 4279436800
4.8203125 -1.3329935 -1.1395692 4280027908
4.8148522 -1.363341 -1.1402577 4279964171
4.8213534 -1.3971944 -1.1439304 4283384896
4.8117566 -1.4264746 -1.1437008 4282001697
4.8066392 -1.4571019 -1.144619 4281147681
4.814342 -1.4917539 -1.1487508 4281346085
4.6492138 -1.4719011 -1.110188 4286610280
4.5836048 -1.482129 -1.096186 4284503611
4.5716519 -1.50931 -1.0954974 4286538833
4.5549259 -1.5348457 -1.0936611 4288117605
4.5509453 -1.5646645 -1.0950383 4293051560
4.5761595 -1.6048013 -1.1037608 4291144820
4.5552292 -1.6289165 -1.1010064 4290094703
4.5387478 -1.6545022 -1.0993996 4294963635
4.4911036 -1.6684207 -1.0899885 4290683229
4.4917049 -1.7000813 -1.0927429 4285943826
4.4884543 -1.7304114 -1.0945792 4285684270
4.4831877 -1.760054 -1.0959566 4283123500
3.0179355 1.079856 -0.75492615 4289902512
3.0428193 1.0677521 -0.75974083 4283254323
3.0419719 1.046533 -0.75781494 4282267690
3.164206 1.0669644 -0.78814775 4283259726
3.9374816 1.2212322 -0.98242188 4284114269
4.0535579 1.2300539 -1.010588 4287073918
3.939146 1.1689517 -0.97905159 4286017893
4.0301323 1.1691203 -1.0007179 4280027397
4.0904527 1.1594721 -1.0144398 4282663992
4.8008623 1.3292819 -1.1954736 4291017385
4.7930007 1.2954904 -1.191381 4291936428
4.838397 1.2759653 -1.2010105 4286669132
4.1956906 1.0788203 -1.034421 4290350699
4.858398 1.2176756 -1.2022141 4290743393
4.84975 1.1839254 -1.1981217 4291269735
4.8588114 1.1545948 -1.198603 4291269483
4.8620219 1.1238847 -1.1976402 4291206789
4.9796166 1.1189528 -1.2258062 4280554516
5.1286216 1.1194565 -1.2619168 4279706417
5.1819177 1.097834 -1.2737128 4279969848
5.2455983 1.0777504 -1.288157 4279906116
5.2740049 1.0499068 -1.2936939 4278984745
5.3108444 1.02341 -1.3013974 4292272351
5.3418317 0.99543226 -1.3076566 4280035113
5.3707633 0.96676832 -1.3134342 4279840572
5.4215379 0.94161135 -1.3247489 4279973451
5.4415722 0.910734 -1.32836 4279842376
5.463347 0.87995505 -1.3324524 4279776070
5.4811125 0.84834868 -1.335582 4279841350
5.5130954 0.81869888 -1.3423226 4279644486
5.5468416 0.78896201 -1.3495448 4279840580
5.573698 0.75792497 -1.3550817 4280825149
5.6023059 0.72683799 -1.3611001 4279771691
5.6297779 0.69530922 -1.3668778 4279839803
5.6320105 0.66052592 -1.3663963 4279709244
5.6832247 0.63121575 -1.3781923 4279774012
5.6869907 0.59633219 -1.3781923 4279642166
5.7253146 0.56486404 -1.3868588 4279904825
5.7335052 0.53017133 -1.3880625 4284836212
5.7472868 0.49590123 -1.3907106 4279900700
5.7647333 0.46179268 -1.3943217 4279771684
1.8347421 0.13485107 -0.41621014 4284569932
1.8413451 0.12398571 -0.41765457 4283515453
5.8265066 0.35895762 -1.4078029 4279507747
5.8382902 0.32373941 -1.4102103 4279639585
5.8013906 0.28599086 -1.4005808 4279967269
5.8146725 0.25089324 -1.4034697 4278783496
1.8248835 0.066722766 -0.41283986 4289373585
1.8039157 0.054861322 -0.40754366 4284765756
1.8313866 0.04446869 -0.41428426 4284566577
1.7491393 0.031681526 -0.39382169 4284961081
1.7318314 0.020727541 -0.38948843 4283185702
1.6863093 0.0098040095 -0.37817383 4281542425
1.67372 -0.00054785435 -0.37504426 4280622612
1.6698029 -0.010795215 -0.37408131 4280426262
1.6764989 -0.021121586 -0.37576646 4280360473
1.6676039 -0.03125044 -0.37359983 4280294167
1.6780541 -0.041740134 -0.37624794 4280293397
1.6748559 -0.051947456 -0.37552571 4279965203
1.6987542 -0.063107327 -0.38154414 4279965460
1.6905774 -0.073198967 -0.37961823 4280097816
5.811182 -0.28449461 -1.4029882 4278453252
5.7754068 -0.31828359 -1.3945624 4280951844
5.7830334 -0.35430637 -1.3969698 4279702290
5.7817192 -0.38984886 -1.3972105 4278387457
5.6930671 -0.41899469 -1.375785 4279768081
5.7348957 -0.4574599 -1.3868588 4282136369
5.8277183 -0.50084859 -1.4106917 4280624159
5.7945728 -0.5338431 -1.4032289 4278979335
5.7689719 -0.56720799 -1.397692 4279573275
5.7624865 -0.60229301 -1.3969698 4279179546
5.7355299 -0.63508064 -1.3911921 4279443748
5.7199559 -0.6689108 -1.3883033 4279510316
5.7061105 -0.70281065 -1.385896 4279380273
5.6776261 -0.73470038 -1.3798774 4279839802
5.6778202 -0.77017516 -1.3810812 4278259484
4.7187228 -0.66978705 -1.1420301 4278192918
5.6160941 -0.83212155 -1.3680815 4280102713
5.5916972 -0.86360663 -1.3632667 4281550412
5.5824599 -0.89728504 -1.3623037 4283782986
4.8234062 -0.80583125 -1.1728443 4281477135
4.8097639 -0.83392179 -1.1706777 4281675292
4.7902265 -0.86084652 -1.1670666 4280952349
5.4423389 -1.0123843 -1.3329339 4282403912
5.4064765 -1.040081 -1.3254712 4278194964
5.3857126 -1.0703999 -1.3218601 4292274145
5.3343544 -1.0942686 -1.3105454 4278456850
5.3218417 -1.1257749 -1.309101 4292013029
5.2968149 -1.1544846 -1.304527 4289449407
5.2659545 -1.1816559 -1.2985086 4289908158
5.2283406 -1.2069652 -1.2908051 4290038972
5.1925039 -1.2323056 -1.283583 4289777083
5.1574974 -1.2574816 -1.2766017 4288330916
5.0385766 -1.2613165 -1.2481948 4291749333
4.9357896 -1.2678418 -1.2238804 4278258185
4.8922491 -1.2887167 -1.2147324 4288123281
4.710887 -1.271947 -1.1701962 4279304704
4.7029939 -1.3008285 -1.1701962 4283707426
4.7061305 -1.3328322 -1.1730851 4288643947
4.6223493 -1.3398148 -1.1535854 4287854691
4.6224165 -1.3706329 -1.1557521 4281864960
4.7012362 -1.4254216 -1.1783812 4281470215
4.7035275 -1.4576862 -1.1812701 4283050015
4.6907935 -1.4853479 -1.1803071 4284496670
4.5726104 -1.4788846 -1.1519003 4286273592
4.5339551 -1.4971821 -1.1441966 4294962122
4.4796114 -1.5097953 -1.1324006 4294106532
4.4473152 -1.5293682 -1.1263822 4291274335
4.4378476 -1.5566276 -1.1263822 4291074388
4.4327826 -1.5854615 -1.1275859 4289499719
4.460361 -1.6262528 -1.1374561 4287721517
4.4757757 -1.6630499 -1.1441966 4285022220
4.4682107 -1.6915116 -1.1449189 4284959775
4.4740496 -1.7251779 -1.1492522 4284499226
4.4913893 -1.7635878 -1.1567149 4283910695
4.4922009 -1.795794 -1.1598445 4282665536
4.0086036 1.4901561 -1.074474 4289111192
4.0403991 1.4738196 -1.0807799 4283054136
2.9323323 1.0494019 -0.77153581 4282069547
2.9286718 1.0278659 -0.76876116 4282597431
3.0767567 1.05866 -0.80785811 4279769364
3.1116204 1.0493437 -0.81567752 4284771941
4.0642877 1.31517 -1.0732127 4284048731
4.0519857 1.2837794 -1.0676636 4286086768
3.9229941 1.2164886 -1.0303322 4282467385
3.8424129 1.165715 -1.0063696 4287336067
3.8624814 1.1459687 -1.0099009 4281545513
4.1231647 1.1958079 -1.0787619 4279110145
4.7151098 1.3361182 -1.2371676 4287657825
4.7129607 1.3043233 -1.234393 4290353789
4.706862 1.2715961 -1.2306094 4287064401
4.7014756 1.2392395 -1.2270781 4287522119
4.7080541 1.2101276 -1.2268258 4290810729
4.731348 1.1852129 -1.2311139 4291334504
4.7404113 1.1566181 -1.2316184 4291731062
4.754951 1.1292979 -1.2336363 4287523161
4.9729886 1.1488756 -1.2901376 4280686616
4.9959955 1.1219435 -1.2944257 4280100397
5.0065675 1.0920922 -1.2954346 4279971655
5.0491486 1.0689652 -1.3050197 4280102466
5.1456637 1.0564455 -1.3289824 4282600791
5.1985545 1.0340996 -1.341342 4279574053
5.238059 1.0085837 -1.3501704 4280760647
5.2898135 0.98492336 -1.3622777 4280235590
5.3176622 0.9563852 -1.3680793 4280037952
5.3424988 0.927046 -1.373124 4280234560
5.3709927 0.89807606 -1.3791777 4280366147
5.3964653 0.86833018 -1.3844748 4280104257
5.4303813 0.83963561 -1.3920419 4280366917
5.4660611 0.81084108 -1.4001135 4287601826
5.5015912 0.78164029 -1.4081851 4286544235
5.5292964 0.75099242 -1.4142388 4283711274
5.5481954 0.7189154 -1.4180224 4291609522
5.5707493 0.6871081 -1.422815 4294766816
5.588316 0.65448862 -1.4263463 4294963934
5.5979972 0.62082666 -1.4278597 4291541931
5.6421227 0.59069538 -1.4384537 4288515196
5.6552711 0.55701268 -1.4409761 4288251509
5.6730356 0.52363521 -1.4447597 4282658329
5.7147064 0.49213463 -1.4548492 4286013772
5.6848221 0.45444116 -1.4462731 4285686095
5.7241755 0.42225385 -1.4558581 4285027655
1.8464502 0.12508446 -0.44211262 4280427294
5.7250624 0.35174054 -1.4548492 4283118636
5.7135863 0.31585869 -1.4513179 4281408786
5.7299147 0.28150612 -1.4551015 4280156672
5.7257333 0.24609381 -1.453588 4282394903
1.8445832 0.068208322 -0.44085145 4288253830
1.8178849 0.056059543 -0.43378878 4285949004
1.8346401 0.045306791 -0.43807682 4285158965
1.7855409 0.033143636 -0.42521268 4284763952
1.7615209 0.021891853 -0.41890672 4282659617
1.7287221 0.01088323 -0.41033062 4281608220
1.723918 0.00027610268 -0.40906942 4280885271
1.7045342 -0.010181649 -0.40402466 4280688407
1.7160509 -0.02078354 -0.4070515 4280491546
1.719761 -0.031384137 -0.40806046 4280425754
1.7311444 -0.042221531 -0.41108733 4280294167
1.7395576 -0.053110559 -0.41335747 4279899922
1.7585393 -0.06449689 -0.41840222 4279834644
1.7745456 -0.075993292 -0.4226903 4279834905
5.6294003 -0.27653465 -1.4288687 4284171575
5.470109 -0.30235454 -1.3877538 4283316257
5.3522501 -0.32878467 -1.3574853 4283316516
5.3704062 -0.36299112 -1.3627822 4283514413
5.3854485 -0.397219 -1.3673226 4284369206
5.4716516 -0.43735555 -1.3905284 4285815623
5.5334592 -0.47648749 -1.4074284 4284501562
5.6393142 -0.52048826 -1.4359313 4283779128
5.6600895 -0.55745333 -1.4422373 4282135585
5.6681113 -0.59338236 -1.4452641 4279373314
5.6585927 -0.62750971 -1.4437507 4280098586
5.6661687 -0.66356987 -1.4467776 4279967780
5.6706347 -0.69939095 -1.4490477 4279904045
5.6393666 -0.73068875 -1.441985 4280102713
5.6271062 -0.7642352 -1.4399672 4278457114
5.5935698 -0.79466283 -1.4324 4282273623
5.5799742 -0.82769102 -1.4301299 4280168760
5.5413198 -0.8567363 -1.4213015 4281220934
5.5340481 -0.89041352 -1.420797 4284636755
4.840354 -0.80925035 -1.2389333 4283382827
4.8209963 -0.83645254 -1.2351497 4282001697
4.8176775 -0.86636055 -1.2356541 4281281060
4.8836193 -0.90919363 -1.254572 4278191360
5.3644514 -1.0328469 -1.383718 4292205531
5.2706995 -1.0483693 -1.3605121 4278914830
5.2963953 -1.0873085 -1.3690882 4293192424
5.2744775 -1.1165786 -1.3650523 4285036651
5.0377893 -1.0987948 -1.3037585 4290302395
5.2093949 -1.1697682 -1.3514315 4290367418
5.1766629 -1.195828 -1.3446211 4291220677
5.0976768 -1.2105715 -1.325451 4286219647
4.9670029 -1.2117734 -1.2924078 4283259991
4.7698665 -1.1947201 -1.2414557 4282668885
4.9142704 -1.2629974 -1.2823182 4279313699
4.9344997 -1.3005276 -1.2898854 4281550402
4.9030728 -1.32447 -1.2835795 4289115827
4.6365247 -1.2830224 -1.2137095 4282920744
4.6229792 -1.309864 -1.212196 4283444002
4.6074195 -1.336049 -1.2101781 4283311896
4.6093397 -1.3673223 -1.2129527 4282059521
4.6156793 -1.4000744 -1.2169886 4284625705
4.6199408 -1.4323822 -1.2205199 4283969305
4.6138325 -1.4615796 -1.2212766 4285152031
4.5964913 -1.4871804 -1.2190064 4284757786
4.5707412 -1.5098912 -1.2144662 4282849536
4.4605289 -1.5038929 -1.1867199 4288113729
4.4457269 -1.5293447 -1.1852065 4288772673
4.4335203 -1.5556331 -1.1844498 4287523122
4.4193368 -1.581177 -1.1831887 4286274338
4.41046 -1.6085955 -1.1834408 4285617956
4.4358802 -1.6487786 -1.1932782 4284433447
4.4989791 -1.70373 -1.2137095 4282395155
4.4803147 -1.7281682 -1.2114393 4282789648
4.5443807 -1.7849958 -1.232375 4282658837
4.526155 -1.8099712 -1.2303572 4282661925
4.0203137 1.5237886 -1.1324772 4292529092
4.0133142 1.4930327 -1.1277395 4283250990
2.8072457 1.02441 -0.77478898 4281869601
3.9713943 1.4221871 -1.1103684 4288645727
4.0146317 1.4099497 -1.12037 4286344526
3.1703982 1.0913839 -0.87427843 4281018140
4.0462556 1.3655175 -1.1245812 4287267202
4.120502 1.3624892 -1.1435316 4286607732
4.044354 1.3098111 -1.1193172 4281344543
4.1231184 1.3074437 -1.1395836 4285953897
3.7404284 1.1607665 -1.027987 4283716941
3.8370159 1.1650075 -1.0535173 4282598463
4.1529589 1.2332534 -1.141426 4283185720
4.1224647 1.1967106 -1.1306348 4279961350
4.6141744 1.3089483 -1.2680249 4289433463
4.6286268 1.2824162 -1.2698674 4291534976
4.600091 1.2441592 -1.2596025 4286534721
4.6104364 1.2166494 -1.2603922 4291862137
4.6327624 1.1921879 -1.2646034 4291072354
4.6315694 1.161625 -1.2622346 4291138149
4.63205 1.1315801 -1.2603922 4282919966
4.8772883 1.1598866 -1.3272449 4280427555
4.9284873 1.1401684 -1.3396152 4279376926
4.9636264 1.116263 -1.3475113 4283652958
4.9864044 1.0892897 -1.3519857 4278981138
4.9986558 1.0598749 -1.3535649 4289573296
4.9918361 1.0264605 -1.3498801 4280954413
4.9147835 0.97920376 -1.3267184 4281152307
5.0144763 0.96713775 -1.3527752 4280694591
5.1986051 0.96964675 -1.4022567 4280366914
5.274714 0.9504053 -1.4217335 4280235592
5.3013558 0.92166227 -1.427524 4279971642
5.328794 0.89278764 -1.4335775 4280233788
5.3570299 0.86376458 -1.4398943 4280103742
5.3860626 0.83457643 -1.4464743 4280038213
5.4101663 0.80435407 -1.4517382 4280101434
5.4293265 0.77318609 -1.4556863 4283914847
5.454042 0.74259526 -1.4612135 4280690476
5.4757156 0.71135676 -1.4659511 4280430653
5.5134869 0.68189657 -1.4751631 4279970870
5.5214 0.64850456 -1.4762158 4280890172
5.5617099 0.61867434 -1.4862174 4280232242
5.5644417 0.5844357 -1.4859543 4281217336
5.5660028 0.55009174 -1.4854279 4284899161
5.5711946 0.51610744 -1.4859543 4280754980
5.5925183 0.48349613 -1.490955 4281084720
1.8652102 0.14894728 -0.4700039 4284240716
1.844923 0.13592687 -0.46421349 4279898126
5.5821829 0.37922803 -1.4859543 4280230694
5.5786271 0.34461117 -1.484375 4280297768
5.5787101 0.3102673 -1.4838487 4280165928
5.5747275 0.27574396 -1.4822694 4279900960
5.3748741 0.23276533 -1.4272608 4279507231
1.8332508 0.067351714 -0.4600023 4285030998
1.8075943 0.055288605 -0.45289591 4287264086
1.8127216 0.044317387 -0.45421189 4284828971
1.7705184 0.03238941 -0.44263113 4284697645
1.7484967 0.021240711 -0.43657753 4282857255
1.7100053 0.010253908 -0.42604953 4281411357
1.7245072 -0.00023078616 -0.42999753 4281016346
1.7138612 -0.010752832 -0.42710236 4280819482
1.7147278 -0.021279996 -0.42736554 4280622616
1.7203523 -0.031904358 -0.42894474 4280294167
1.7374846 -0.04287634 -0.43368232 4280163094
1.7342957 -0.053449333 -0.43289274 4279965715
5.3242693 -0.19436876 -1.4130479 4288981660
5.2641802 -0.2245394 -1.3969928 4289112472
1.7860165 -0.087937653 -0.44736871 4279507228
5.1473594 -0.28290066 -1.3659352 4280228624
5.3111548 -0.32456389 -1.4112055 4291610563
5.2753735 -0.35488752 -1.4019935 4283188038
5.3048477 -0.38957459 -1.4106791 4282596406
5.3562136 -0.42639267 -1.4254184 4282791981
5.3727212 -0.46089476 -1.4306823 4283384377
5.3957314 -0.49623239 -1.4377887 4280557852
5.4482732 -0.53478479 -1.4530543 4279900959
5.5475612 -0.57889688 -1.4812167 4279768601
5.5276031 -0.61112642 -1.4767423 4279835932
5.4413395 -0.63542587 -1.454107 4278981906
5.5397959 -0.68138158 -1.4822694 4279771935
5.5240293 -0.71387893 -1.4791111 4279772194
5.4736552 -0.74155325 -1.4664775 4280035366
5.4116888 -0.76701432 -1.4506855 4282930260
4.7111402 -0.69738978 -1.258813 4280101678
5.3961477 -0.83248502 -1.4491063 4278784275
5.3756971 -0.86313564 -1.4448951 4280097815
4.8488126 -0.80920249 -1.3006617 4283120418
4.8218918 -0.83515751 -1.2946081 4281213713
4.8385172 -0.868644 -1.3006617 4281281575
5.0929956 -0.94655901 -1.3727784 4281281320
5.0946717 -0.97924632 -1.374884 4279835157
5.2503858 -1.0425842 -1.4198911 4281611055
5.2467251 -1.0753608 -1.4206808 4283057471
4.7841086 -1.0112748 -1.2935554 4282926398
4.7966676 -1.0447122 -1.2988193 4284044101
4.8786602 -1.0939454 -1.3235601 4285688413
4.9799676 -1.1487727 -1.3538281 4280953124
4.9709477 -1.1788628 -1.3533016 4280166441
4.981431 -1.2136767 -1.3583025 4279970092
4.9757619 -1.2446872 -1.3588288 4279706666
4.9549484 -1.2718395 -1.355144 4283129953
4.9134622 -1.2933851 -1.3456688 4287017651
4.8746943 -1.3152232 -1.3369832 4286493350
4.7921376 -1.3245648 -1.3159273 4281284913
4.5518351 -1.2883183 -1.2501274 4282593062
4.5132627 -1.3073732 -1.2414418 4283380258
4.505156 -1.3350413 -1.2414418 4283248156
4.4968796 -1.3626593 -1.2414418 4283707426
4.5050225 -1.3953598 -1.2461795 4284035619
4.4706202 -1.4148319 -1.2388098 4283772700
4.4829698 -1.4490558 -1.2448634 4283575830
4.4840727 -1.4798589 -1.2477586 4283116310
4.465765 -1.5042675 -1.2451266 4282721809
4.4902105 -1.5432341 -1.2548649 4282064396
4.4369531 -1.5554477 -1.2422314 4282788372
4.4200573 -1.5800468 -1.2401258 4283711266
4.4438205 -1.6193513 -1.2498642 4280162048
4.4636483 -1.6576636 -1.2585498 4282595356
4.4732456 -1.6925268 -1.2643402 4283908904
4.4834828 -1.7279168 -1.2703937 4283052306
