# .PCD v0.7 - Point Cloud Data file format
VERSION 0.7
FIELDS x y z rgb
SIZE 4 4 4 4
TYPE F F F U
COUNT 1 1 1 1
WIDTH 1112
HEIGHT 1
VIEWPOINT 0 0 0 1 0 0 0
POINTS 1112
DATA ascii
5.3503184 -0.32866588 -1.3569808 4282792232
5.3684754 -0.36286047 -1.3622777 4283055151
5.4028192 -0.39850146 -1.3718628 4284435515
5.5266328 -0.44175419 -1.404906 4285224256
5.5797358 -0.4804756 -1.4195359 4285158722
5.6768932 -0.52395922 -1.4457686 4284369986
5.6754975 -0.55897194 -1.4462731 4282792492
5.6729231 -0.59388644 -1.4465253 4280819221
5.6797514 -0.62985754 -1.4492999 4280032023
5.6575189 -0.66255629 -1.4445075 4280034855
5.6677532 -0.69903541 -1.4482911 4279707695
5.6451244 -0.73143518 -1.4434985 4280102456
5.6271062 -0.7642352 -1.4399672 4278390809
5.5686607 -0.79112238 -1.4258418 4279970868
5.5866742 -0.82868534 -1.4318955 4280105023
5.5489702 -0.85791963 -1.4233195 4280564800
5.5235391 -0.88872188 -1.4180224 4287597440
4.8451262 -0.81004858 -1.2401944 4282725157
4.8286238 -0.83777654 -1.2371676 4281739295
4.8243442 -0.86755997 -1.2374198 4280689436
4.8950348 -0.91131985 -1.2575989 4280098085
5.3654013 -1.0330299 -1.3839703 4292599276
5.2811389 -1.0504466 -1.3632867 4278587410
5.2954473 -1.0871139 -1.3688359 4292536802
5.2583842 -1.1131705 -1.3607644 4287076236
5.1001873 -1.1124094 -1.3204062 4291681996
5.2178922 -1.171677 -1.3537017 4290563515
5.1785483 -1.1962637 -1.3451256 4291088831
5.1202717 -1.2159392 -1.3315047 4285167212
4.9782834 -1.2145264 -1.2954346 4283655011
4.7717438 -1.1951905 -1.2419602 4284115310
4.7746296 -1.2270974 -1.2447348 4280825660
4.9447923 -1.3032411 -1.29266 4279971119
4.8918629 -1.3214409 -1.2805526 4285230442
4.6467834 -1.2858621 -1.2164841 4284234540
4.627634 -1.3111835 -1.2134572 4286008888
4.6260066 -1.3414406 -1.2152228 4290546287
4.6288214 -1.373103 -1.2182497 4290084194
4.6110492 -1.3986696 -1.2157273 4289953642
4.6023803 -1.4269361 -1.2157273 4289362013
4.5990729 -1.4569027 -1.2172408 4288508487
4.593729 -1.4862865 -1.2182497 4287389494
4.5597157 -1.506248 -1.2114393 4283768579
4.4605289 -1.5038929 -1.1867199 4288443726
4.4329166 -1.5249368 -1.1816752 4288116288
4.4234767 -1.5521079 -1.1816752 4286866473
4.4175143 -1.5805249 -1.1826842 4286208805
4.4122782 -1.6092588 -1.1839453 4285617707
4.4376941 -1.6494529 -1.1937826 4283580707
4.5025988 -1.705101 -1.2147183 4282527000
4.5010791 -1.7361795 -1.2172408 4282526992
4.5002489 -1.7676572 -1.2200154 4283383592
4.4749427 -1.7894871 -1.2159796 4282926390
4.0230198 1.5248151 -1.1332668 4292928215
4.0187387 1.4950525 -1.1293188 4283645735
2.8371489 1.0353354 -0.78347456 4282726198
4.00318 1.4335798 -1.1195804 4288384107
4.0237331 1.4131489 -1.1230021 4283976237
3.2032337 1.1027001 -0.88375366 4280163094
4.068192 1.3729271 -1.130898 4287924110
4.120502 1.3624892 -1.1435316 4291409075
4.0773921 1.3205209 -1.1287924 4281145363
4.1231184 1.3074437 -1.1395836 4284899678
3.7560906 1.1656321 -1.0324613 4283913812
3.8157859 1.1585548 -1.0474637 4282730310
4.2445092 1.2604668 -1.1674827 4283648581
4.0946717 1.1886345 -1.1227388 4279108352
4.6178865 1.3100023 -1.2690778 4290224007
4.6286268 1.2824162 -1.2698674 4293574823
4.5311804 1.2255033 -1.2401258 4285549117
4.6104364 1.2166494 -1.2603922 4292191114
4.6140776 1.1873747 -1.2593393 4291795315
4.6268907 1.1604505 -1.2609186 4291666803
4.611433 1.1265383 -1.2546018 4282721558
4.885735 1.1618974 -1.3296137 4280821291
4.9416456 1.1432157 -1.3433001 4279442719
4.9542141 1.1141441 -1.3448793 4282337361
4.9967713 1.0915568 -1.3548808 4279506466
4.9958248 1.059274 -1.3527752 4289507252
5.0078998 1.0297675 -1.3543544 4279376672
4.9649267 0.98920637 -1.3406681 4281746511
4.9727974 0.95908928 -1.3411945 4279840319
5.2242103 0.97442853 -1.4093632 4280432967
5.2690177 0.9493776 -1.4201543 4280367178
5.2994552 0.92133135 -1.4269975 4279642677
5.3268914 0.89246839 -1.4330511 4280168768
5.3636966 0.86484098 -1.4417367 4279972671
5.3841562 0.83428055 -1.4459479 4279973701
5.4206629 0.80591691 -1.4546335 4279444272
5.4522481 0.77645534 -1.4620031 4284308839
5.4817629 0.74637562 -1.4688462 4280821557
5.4948492 0.7138465 -1.471215 4280298816
5.5201888 0.68272692 -1.4770055 4280693571
5.5376883 0.65042114 -1.4806902 4280693571
5.5645862 0.61899495 -1.487007 4280823609
5.5769148 0.58574837 -1.4893758 4281611318
5.586164 0.55208856 -1.490955 4284042828
5.5923281 0.51806962 -1.4917446 4280821291
5.6011686 0.48424581 -1.4933238 4280428333
1.8267449 0.14585139 -0.4594759 4285291612
1.7939323 0.13213761 -0.45026392 4280291345
5.5946951 0.3800807 -1.4893758 4280492326
5.5834413 0.34490958 -1.4856911 4280032543
5.5979753 0.31134278 -1.4891126 4280427820
5.6045976 0.27722773 -1.4904286 4280888632
5.3787293 0.23293312 -1.4283135 4282468179
1.8178257 0.066775151 -0.45579109 4286610293
1.7969873 0.054957293 -0.4500007 4286672210
1.8030772 0.044075366 -0.4515799 4284698163
1.7791996 0.032553963 -0.4449999 4284369457
1.7523553 0.021290172 -0.43763033 4281344017
1.7292997 0.010382823 -0.43131354 4281213729
1.7206482 -0.00023289089 -0.42894474 4280885534
1.7225437 -0.010801372 -0.42947114 4280557339
1.7156924 -0.02129131 -0.42762876 4280426266
1.7271044 -0.03202498 -0.43078715 4280425753
1.7490581 -0.043154135 -0.43684074 4280294168
1.7584033 -0.054176014 -0.43947273 4279966230
5.2587099 -0.19198987 -1.3951504 4284901225
5.2661076 -0.22462119 -1.3975191 4289374892
1.8120338 -0.089201584 -0.4544751 4279440408
5.3679547 -0.29497442 -1.4262079 4281544743
5.3130808 -0.32468116 -1.411732 4289703329
5.2792234 -0.35514566 -1.4030464 4283255615
5.30581 -0.38964504 -1.4109423 4282332460
5.3331327 -0.42456034 -1.4191015 4282660906
5.3669538 -0.46040127 -1.4291031 4282859568
5.4322381 -0.49958187 -1.4477903 4279900949
5.5135632 -0.54117936 -1.4709518 4279704859
5.5533185 -0.57949644 -1.4827958 4280295456
5.5439048 -0.61292523 -1.4812167 4279834903
5.5342903 -0.64626026 -1.4796374 4280099617
5.5551167 -0.68326277 -1.4864806 4279772710
5.5460358 -0.7167182 -1.4851646 4279575331
5.4784355 -0.74219984 -1.4677935 4280101161
5.4460769 -0.77188069 -1.4601606 4283982948
4.7225924 -0.69908226 -1.2619714 4279773738
5.4085431 -0.83439457 -1.4525279 4279310619
5.3414044 -0.85763711 -1.4354199 4284175436
4.8516674 -0.80967826 -1.3014513 4282659617
4.8190398 -0.83466429 -1.2938185 4281345044
4.8337693 -0.86779273 -1.2993457 4281544997
5.0749736 -0.9432137 -1.3677776 4280690725
5.0899343 -0.97833687 -1.3735681 4279637017
5.2484927 -1.0422088 -1.4193647 4281677111
5.2249866 -1.0709103 -1.4146272 4283321675
4.792604 -1.0130684 -1.2959241 4283715914
4.8051519 -1.0465579 -1.3011881 4284571993
4.8315892 -1.0834023 -1.3104001 4286608755
5.0100508 -1.1557051 -1.3622504 4279705881
4.9634376 -1.1770836 -1.3511961 4279773224
4.9842429 -1.2143612 -1.359092 4279837738
4.977634 -1.245155 -1.3593552 4279508258
4.9493413 -1.2704016 -1.3535649 4282340437
4.9134622 -1.2933851 -1.3456688 4286295208
4.8719001 -1.3144701 -1.3361937 4287413169
4.76331 -1.316604 -1.3077681 4279179285
4.53234 -1.2828057 -1.2446002 4283447350
4.5188231 -1.3089823 -1.243021 4283773219
4.5014558 -1.3339459 -1.240389 4284167203
4.5024195 -1.3643366 -1.243021 4284167205
4.4967279 -1.3927928 -1.2438107 4284560163
4.4908571 -1.4212307 -1.2446002 4284691488
4.4884782 -1.4508349 -1.2464426 4284495392
4.4914026 -1.4822758 -1.2498642 4283771930
4.4611931 -1.5027288 -1.2438107 4283116310
4.4728742 -1.5372806 -1.2498642 4281867270
4.4369531 -1.5554477 -1.2422314 4283512093
4.4109721 -1.5768017 -1.2374939 4283644705
4.4483533 -1.6210017 -1.2511802 4281079808
4.4500813 -1.652629 -1.2546018 4283185698
4.4930983 -1.7000329 -1.2701305 4282527251
4.4816823 -1.7272234 -1.2698674 4283314965
4.4754906 -1.756451 -1.2711834 4284431649
4.4816523 -1.7906761 -1.2761842 4284563235
4.4786243 -1.8214103 -1.278553 4282464808
4.0078845 1.5469279 -1.1855069 4292201407
4.0074096 1.5185597 -1.1824878 4281869848
2.7575264 1.0257556 -0.79906338 4281804560
4.0094829 1.4633354 -1.1775475 4286800437
4.0310607 1.4432429 -1.1813899 4287987035
4.0071769 1.4070159 -1.1715093 4280556300
3.1946733 1.0998379 -0.92366946 4285688677
3.9694717 1.3392957 -1.1550416 4294960827
3.9803538 1.3158195 -1.155865 4290748281
3.9782891 1.2881144 -1.1528459 4290155908
3.6267853 1.1498007 -1.0452565 4285221959
4.1453376 1.2862027 -1.1981322 4284764490
4.1632733 1.2638147 -1.2011513 4289832862
4.4862247 1.331812 -1.2950175 4282332459
4.1285987 1.198162 -1.1863303 4278648832
4.50038 1.2761344 -1.2944686 4281144335
4.4997849 1.2461874 -1.2919985 4293705383
4.5008488 1.2167975 -1.2900772 4291599476
4.5277562 1.1943069 -1.295841 4291402089
4.5191674 1.1624316 -1.291175 4291797884
4.520618 1.133278 -1.2895283 4281605641
4.7797127 1.1670851 -1.3636333 4280555807
4.8532081 1.1535177 -1.3831201 4279641127
4.8770585 1.127615 -1.3880605 4279902756
4.8801332 1.0968255 -1.3869625 4285823099
4.8313413 1.0547643 -1.3707693 4286677890
4.7982121 1.0167309 -1.3592418 4286940287
4.7676249 0.97972459 -1.3485378 4286873716
4.7678881 0.94932634 -1.346891 4287333492
4.7821212 0.9216904 -1.3493612 4286808955
4.7649984 0.88810378 -1.342774 4280430389
5.1650052 0.92986894 -1.457225 4281087551
5.0313425 0.87397808 -1.4168789 4279574564
5.2206025 0.87387449 -1.4701247 4280232496
5.3103604 0.85542965 -1.4945519 4281416004
5.3316641 0.82532936 -1.4992179 4278916634
5.3613582 0.79627049 -1.5063539 4285232500
5.3918476 0.76701355 -1.5137644 4279574566
5.4174151 0.73676473 -1.5198026 4280299583
5.4552102 0.70783865 -1.5294087 4279971907
5.46804 0.67541307 -1.5318788 4280102717
5.3784857 0.63087744 -1.5049815 4280760134
4.9894514 0.55425924 -1.3921773 4279965982
4.8187013 0.50539273 -1.3422251 4286411893
4.8159695 0.4752501 -1.3405783 4279569162
4.8120923 0.44507152 -1.3386571 4283716179
1.8783309 0.16234623 -0.49742883 4283714380
4.8171916 0.38598624 -1.3386571 4284244065
4.7935767 0.35450846 -1.3312466 4282601809
4.7937427 0.32495901 -1.3306977 4280431668
4.8023653 0.29595256 -1.332619 4280366136
5.4300928 0.30115381 -1.5115687 4280561473
5.4001446 0.26626921 -1.5025114 4287999415
5.2085743 0.22480932 -1.4473443 4287078564
1.8455968 0.068565384 -0.48645031 4284241748
1.8257987 0.056618098 -0.4806866 4287462755
1.8318796 0.045556363 -0.48233336 4284697132
1.7927059 0.03358531 -0.47108036 4284367915
1.7669171 0.022263397 -0.4636699 4282988842
1.7362499 0.011229215 -0.45488709 4281607456
1.7334013 0.00057525974 -0.45406368 4280885022
1.7218332 -0.0099911578 -0.45077014 4280819231
1.7111627 -0.02042729 -0.44775105 4280688156
1.7138896 -0.030979188 -0.44857445 4280491547
1.7252029 -0.041776761 -0.451868 4280359960
1.7306809 -0.052537974 -0.45351478 4280031257
5.2435594 -0.19217253 -1.4569505 4282602322
5.1913633 -0.22216 -1.442404 4287540648
5.1802979 -0.25353864 -1.4396594 4284383610
1.851768 -0.10177546 -0.48864603 4290620830
5.1249681 -0.31391126 -1.4248384 4289247665
5.1661191 -0.34826529 -1.4371892 4285365116
5.18786 -0.38172334 -1.4440508 4288259489
5.2582693 -0.41936362 -1.46491 4281674280
5.3140392 -0.45664611 -1.4816523 4282330409
5.3341179 -0.49136248 -1.4882393 4285425505
5.3415294 -0.52511835 -1.4912584 4280360209
5.3783746 -0.56208432 -1.5027858 4282860607
5.3308606 -0.59020406 -1.4901606 4282202942
5.3338242 -0.6236847 -1.4920818 4280097313
5.4005213 -0.6651035 -1.512392 4279768603
5.3906164 -0.69748724 -1.5107453 4279768860
5.3757534 -0.72912794 -1.5077262 4278849552
5.3730826 -0.76236951 -1.508275 4279178256
4.7557273 -0.70452499 -1.331521 4288585626
5.3671241 -0.82883543 -1.5093729 4278255875
4.932807 -0.79275221 -1.3853158 4284306771
4.8756847 -0.81428826 -1.3702203 4279174144
4.8345938 -0.83794641 -1.3597908 4278715136
4.8340931 -0.86844569 -1.361163 4283057220
4.8589253 -0.90371972 -1.3699459 4282665546
4.8325148 -0.929519 -1.3639077 4282466884
4.8220048 -0.95821589 -1.3625354 4280361508
5.0562377 -1.0370711 -1.4325234 4287797137
5.1814866 -1.0959439 -1.4709481 4292205267
5.1041999 -1.1123544 -1.4503634 4293521128
5.0062675 -1.1232257 -1.4237405 4283318587
4.917767 -1.1351008 -1.3998623 4286280039
5.0005274 -1.1865743 -1.4262108 4280030993
4.9940867 -1.2174625 -1.4264852 4279638555
4.9650683 -1.2427112 -1.4201726 4278193678
4.9126444 -1.2616681 -1.4069983 4287608501
4.874125 -1.2837034 -1.3979411 4286690479
4.8253088 -1.3025565 -1.3858647 4286887080
4.7829347 -1.322654 -1.3757095 4287346351
4.7007127 -1.3310124 -1.3537526 4279904548
4.4393973 -1.2864743 -1.2785498 4282856747
4.4295759 -1.313143 -1.2780008 4284233768
4.4168344 -1.3389024 -1.2766285 4284496168
4.4103727 -1.3665477 -1.2771775 4284562473
4.4037385 -1.3941641 -1.2777264 4284627239
4.393271 -1.4205669 -1.2771775 4284758312
4.3835588 -1.4471952 -1.276903 4284495653
4.3764191 -1.4746794 -1.2774519 4284167969
4.3754721 -1.5043192 -1.2799221 4284102435
4.3598075 -1.5289102 -1.2780008 4283315229
4.4508462 -1.5915804 -1.3084662 4282331153
4.420218 -1.6112841 -1.3021536 4284434209
4.4093466 -1.6380408 -1.301879 4284500507
4.4207964 -1.6732364 -1.3084662 4284566559
4.4633813 -1.7207429 -1.3246595 4282527241
4.483171 -1.7600474 -1.3339913 4283644192
4.4740729 -1.7882364 -1.3345401 4284036894
4.4888458 -1.8261658 -1.3424996 4283251754
4.0484905 1.6203244 -1.2566259 4286743170
4.0298152 1.5842236 -1.2474999 4294306785
2.6545618 1.0243852 -0.80574596 4292924879
2.6661742 1.0101177 -0.80745709 4283317296
4.0008054 1.4883753 -1.229248 4285552440
4.0125632 1.4647855 -1.2301036 4284498721
3.9971147 1.4314058 -1.2224035 4285026627
3.1920111 1.1207886 -0.96573567 4280292877
3.939167 1.3563267 -1.1987331 4288511057
3.9283457 1.3256897 -1.1927441 4285284630
3.951875 1.3066804 -1.1975923 4292393373
3.6525543 1.1828029 -1.1014844 4281603845
4.0087223 1.2711347 -1.2104257 4284495649
4.100656 1.2726741 -1.2366629 4281669389
4.3449864 1.3194013 -1.310241 4293248690
4.38975 1.30364 -1.3216485 4289368710
4.0865712 1.1862806 -1.2252554 4287001191
4.386055 1.2441751 -1.3156595 4290813052
4.4037662 1.2200568 -1.3187965 4291926901
4.4102445 1.1927624 -1.3185114 4291861100
4.4100661 1.163721 -1.3162299 4291795317
4.4236212 1.1383131 -1.3182262 4283179793
4.7001119 1.1788338 -1.4009303 4280820262
4.7752223 1.1665936 -1.4217489 4278192135
4.7962766 1.1406009 -1.4260267 4285165152
4.6958027 1.0862818 -1.3932302 4282731075
3.1165035 0.70041931 -0.90955389 4280559655
4.7265701 1.0324658 -1.3986489 4286349176
4.7412543 1.005236 -1.4012154 4285888621
4.761415 0.97902423 -1.4054933 4285757035
4.7654529 0.94941533 -1.404923 4285888362
4.6742568 0.90143895 -1.3755487 4286020979
4.7192717 0.8801313 -1.3875265 4287864472
4.7632561 0.85813469 -1.3992192 4286415735
4.7561564 0.82675487 -1.3955117 4290426274
4.7469606 0.79517734 -1.3912339 4289439125
4.7517509 0.76603562 -1.3912339 4287268475
4.7099519 0.72966355 -1.3772599 4283913034
5.3144374 0.79010069 -1.5577829 4281940271
1.8842781 0.26756597 -0.52540761 4281481011
1.8877836 0.25625825 -0.52597797 4285949024
1.8950233 0.24541229 -0.5276891 4287529853
1.8993469 0.23413354 -0.52854466 4282530613
1.8978921 0.22213896 -0.5276891 4283253310
1.8963616 0.21017103 -0.52683353 4284830796
1.9023815 0.1990328 -0.52825946 4283778878
1.898798 0.18688393 -0.52683353 4285027914
1.8941828 0.17469792 -0.5251224 4282725412
1.8971288 0.16323766 -0.52569282 4284236088
1.8990501 0.15167093 -0.52597797 4283645752
1.8970774 0.13980263 -0.5251224 4283909433
1.8988559 0.12822491 -0.52540761 4283908922
1.9024768 0.11674922 -0.52626318 4284105531
1.9002863 0.10491337 -0.52540761 4284104767
1.8951505 0.092966147 -0.52369648 4283908669
1.8832369 0.080794163 -0.51998907 4282329639
1.86071 0.068378083 -0.51314461 4279763971
1.8361864 0.056181692 -0.50572973 4287789402
1.849911 0.045250628 -0.50972235 4285288239
1.7859478 0.032681879 -0.49061486 4284761895
1.7295694 0.020998104 -0.47378889 4282528029
1.7373333 0.010436499 -0.47607037 4281016597
1.7105274 -0.00023841084 -0.46808514 4280753948
1.7239122 -0.010809023 -0.47207776 4280623132
1.7190213 -0.021330347 -0.47065184 4280688925
1.7322745 -0.032117341 -0.47464445 4280688925
1.747376 -0.043113764 -0.47920743 4280360473
1.7786938 -0.05478764 -0.48861858 4280031253
1.8884759 -0.06969744 -0.521415 4279373323
1.8803518 -0.08095853 -0.51913351 4279503882
1.8826917 -0.092634156 -0.51998907 4280751377
1.8820879 -0.10418439 -0.51998907 4282000927
1.8775864 -0.11549769 -0.5188483 4286014300
1.8864056 -0.12765738 -0.5217002 4285291088
1.9027933 -0.14048953 -0.52683353 4283120178
1.8999845 -0.1520105 -0.52626318 4283448882
1.8951961 -0.16333887 -0.5251224 4283514415
1.8836591 -0.17400123 -0.52198535 4283186737
1.8672935 -0.18406105 -0.51742238 4279766794
1.863269 -0.19521724 -0.51656681 4280228626
1.8582253 -0.20622587 -0.5154261 4280885788
1.8493086 -0.21673608 -0.51314461 4280163611
5.1538076 -0.6339882 -1.5041678 4293256665
5.175487 -0.6689108 -1.5118679 4279901207
5.2567692 -0.71221697 -1.5375346 4282469707
5.1033044 -0.72337353 -1.4927604 4280628019
5.2116022 -0.77134746 -1.5266975 4278653200
4.7359648 -0.73078102 -1.3849598 4281612080
4.8951159 -0.78607845 -1.4342971 4282397483
4.8684559 -0.81247592 -1.4277378 4285950045
4.8577123 -0.84135276 -1.4260267 4281935905
4.8722706 -0.87469524 -1.4320157 4281213725
4.9063911 -0.91192132 -1.4439934 4278849289
5.2254462 -1.0043519 -1.5423828 4288850854
5.0302138 -0.99891412 -1.4850603 4281284913
5.1676564 -1.0591731 -1.5286939 4282140221
5.038208 -1.0649233 -1.4913344 4291614671
5.0044188 -1.0899084 -1.4830641 4280692526
5.0013781 -1.1214323 -1.4842048 4279837467
4.9831953 -1.1495165 -1.4807825 4284969055
4.9098296 -1.1643834 -1.4605343 4282467387
4.96592 -1.2099013 -1.4799269 4279769625
4.9109788 -1.2284974 -1.4653825 4284509807
4.869925 -1.2500364 -1.4551158 4287341736
4.8371353 -1.2733123 -1.4474157 4287082404
4.7885122 -1.2919922 -1.4348675 4287148449
4.733376 -1.3083378 -1.420323 4287411631
4.704968 -1.3316191 -1.4140489 4282276954
4.5052056 -1.3050413 -1.3547301 4281614137
4.3215766 -1.28069 -1.3002595 4283449393
4.3127193 -1.3069048 -1.2999742 4284299555
4.3082824 -1.334476 -1.301115 4285811249
4.2963572 -1.3597301 -1.2999742 4284231703
4.2952299 -1.3884231 -1.3022557 4284428827
4.281168 -1.412951 -1.3005446 4285021219
4.2669678 -1.4373587 -1.2988335 4284890150
4.2635069 -1.4653811 -1.3005446 4284956200
4.2435799 -1.4877115 -1.2971224 4284891692
4.2749896 -1.5282301 -1.3099558 4283249696
4.4186382 -1.6101818 -1.3584375 4283053597
4.4050808 -1.6359298 -1.3572967 4283317789
4.4030294 -1.6659788 -1.3598634 4283843105
4.4276071 -1.7063979 -1.3709857 4284501041
4.4768376 -1.7569793 -1.3900932 4281935886
4.4686432 -1.7854818 -1.3909488 4282395668
4.5011125 -1.8305498 -1.404923 4282135842
4.0349765 1.643339 -1.3109014 4286218107
3.9953253 1.598685 -1.2943045 4289042827
2.6379144 1.0369418 -0.83847982 4290753447
2.6281886 1.0145476 -0.83314502 4281937702
4.0285411 1.5265651 -1.2957864 4282788107
4.0073953 1.4905002 -1.2857096 4285550924
4.0299239 1.4707938 -1.2901552 4281672483
4.0253844 1.441211 -1.2857096 4279895552
3.117667 1.0947787 -0.98429626 4288381550
3.9398153 1.3562745 -1.2519228 4283576340
3.9616377 1.3366535 -1.2563685 4293252540
3.456496 1.142697 -1.0886203 4280423936
4.0050015 1.2967609 -1.2652597 4284298013
4.1348829 1.3108262 -1.304974 4280880386
4.2723799 1.3256085 -1.3470591 4293182637
4.2877445 1.3015873 -1.3494302 4290417522
4.2654357 1.2662867 -1.3396498 4282722330
4.1584687 1.2068274 -1.302603 4294365643
4.3036251 1.2203598 -1.3470591 4290876273
4.2815781 1.1857756 -1.3375752 4291466350
4.2933831 1.160728 -1.3390571 4292061070
4.3225884 1.1402068 -1.3461701 4281602304
4.5755482 1.1769291 -1.4250058 4286146922
4.6808848 1.1734414 -1.4564215 4288059292
4.7084088 1.1496804 -1.4629418 4279244056
3.1032069 0.73771787 -0.94873124 4285955186
4.7007604 1.0868677 -1.4561251 4279308561
4.6011109 1.034137 -1.4223384 4285689702
4.5187244 0.98654008 -1.3941828 4284637268
4.5302982 0.95998257 -1.395961 4285493604
4.7643747 0.97905701 -1.4682765 4284835161
4.7955832 0.9548384 -1.4762787 4282993996
4.6878748 0.90353346 -1.4404173 4282471772
4.6595297 0.86845511 -1.4297478 4282408040
4.6422114 0.83578873 -1.4226348 4290500321
4.6218452 0.80287755 -1.4146327 4288984768
4.6295104 0.77497619 -1.4155217 4287337365
4.63135 0.74609995 -1.4146327 4287203970
4.6320653 0.71708429 -1.4134471 4282138161
4.6231518 0.68668568 -1.4092979 4288059794
4.6244421 0.65790218 -1.4084088 4287205259
4.6255527 0.62912893 -1.4075197 4280034853
5.0830059 0.65956992 -1.5494833 4281021491
5.0604167 0.62509239 -1.5411848 4281084711
4.8279614 0.56634265 -1.4673874 4288319882
4.7259798 0.52501172 -1.4344897 4280095497
4.7110648 0.49411234 -1.4288586 4280030993
1.8930351 0.18704423 -0.54921788 4286215797
4.6349859 0.42870516 -1.4033704 4279374352
4.6622686 0.40239057 -1.4110762 4279111693
4.6675062 0.37400445 -1.4119653 4279242766
4.6811433 0.34620252 -1.4155217 4279111180
4.7012839 0.31869885 -1.4211529 4279176973
4.6898055 0.28902495 -1.4170036 4279374865
4.7210522 0.26188082 -1.4261913 4279834392
4.9486489 0.24403927 -1.4964322 4279572773
4.9386024 0.213177 -1.4928757 4288850866
1.8675375 0.069375902 -0.53884476 4285169285
1.8450172 0.057209995 -0.53173178 4287596157
1.8672935 0.046429586 -0.53854841 4283775527
1.7997447 0.033715658 -0.51750576 4283972128
1.7769978 0.022388214 -0.51039279 4283709736
1.7503603 0.011317335 -0.50209427 4280752657
1.7312953 0.00057502999 -0.4961668 4280623643
1.7408168 -0.010105569 -0.49913058 4280360471
1.732127 -0.020682285 -0.49646321 4280492057
1.7424716 -0.031502258 -0.49972335 4280492057
1.7508385 -0.042403281 -0.50239068 4280229402
1.7753656 -0.053904429 -0.51009643 4280032023
4.9608831 -0.18179184 -1.4993958 4290034879
4.9596748 -0.21222782 -1.4993958 4288390826
4.9496932 -0.24223499 -1.4967285 4292798438
4.9299955 -0.27160156 -1.4910973 4281874496
4.9511142 -0.30324939 -1.4982104 4285099133
1.8522223 -0.1246162 -0.53499192 4280099869
5.0136948 -0.36889526 -1.5189567 4280366396
4.9656391 -0.39600384 -1.5047306 4278984743
5.0202088 -0.43137529 -1.5225132 4286220425
5.1068654 -0.47041214 -1.5503724 4282861886
5.127645 -0.50407612 -1.5577817 4279571471
5.1453533 -0.53771478 -1.564302 4283125582
4.9957705 -0.55308032 -1.5186603 4282271556
5.0435066 -0.58971673 -1.5346645 4284836964
5.0179915 -0.61796546 -1.5278479 4287996050
5.0188413 -0.64935672 -1.5293298 4285821541
5.1226521 -0.69478065 -1.5631164 4281874486
5.1097822 -0.7249915 -1.5604491 4279377703
5.0173755 -0.74330759 -1.5328863 4278655007
4.9759092 -0.76839238 -1.5213276 4285100663
4.8749189 -0.7834444 -1.4910973 4286807936
4.835166 -0.80751777 -1.4801315 4278386688
4.863997 -0.843045 -1.490801 4280229663
4.8643723 -0.87388778 -1.4925792 4280229925
4.8683085 -0.90546566 -1.495543 4280165158
4.8945484 -0.94145602 -1.5056198 4281021237
4.9570613 -0.98506498 -1.5272552 4284048739
5.0061231 -1.0267885 -1.5447413 4279311645
5.0090728 -1.0594633 -1.5477049 4280100649
5.0090098 -1.0916023 -1.5497797 4279442467
5.0040812 -1.1227348 -1.5503724 4279640357
4.9924455 -1.1523439 -1.5488905 4279311382
4.965766 -1.1783231 -1.5426667 4280230942
4.7617316 -1.1608003 -1.4798352 4279442457
4.8842263 -1.2224708 -1.5213276 4283721831
4.8442569 -1.2440993 -1.5109545 4278787355
4.8042078 -1.2652836 -1.5005814 4288261286
4.7437968 -1.2805461 -1.483688 4288592304
4.6971893 -1.2989349 -1.4712403 4278922291
4.6624818 -1.3201841 -1.4626454 4280568666
4.5799913 -1.3272293 -1.438639 4280568666
4.5049186 -1.335485 -1.4170036 4281680456
4.2197046 -1.2791271 -1.3272021 4289237112
4.2026539 -1.3021672 -1.3242383 4290547292
4.190032 -1.326488 -1.3227564 4290546004
4.192719 -1.3556997 -1.3263129 4290348120
4.1816006 -1.3805017 -1.3254238 4291137887
4.1848168 -1.4100991 -1.3292767 4290743389
4.1760855 -1.4357501 -1.3292767 4289362257
4.1708026 -1.4626117 -1.3304622 4290282589
4.1590519 -1.4872106 -1.329573 4287323449
4.1677938 -1.5192456 -1.3355006 4283970839
4.4117527 -1.638935 -1.4193747 4283116557
4.4427009 -1.681529 -1.433008 4283052055
4.4732909 -1.7245642 -1.4466412 4282658326
4.5124083 -1.7715284 -1.4632381 4282526740
4.5103211 -1.8027281 -1.4662019 4283512858
4.5027142 -1.8318089 -1.4673874 4283185953
4.5019784 -1.8637871 -1.4709439 4281677352
3.9690764 1.6168439 -1.3397008 4288057213
3.8516886 1.5414973 -1.2955371 4281278224
2.5829775 1.0149827 -0.85298026 4281541899
3.9759686 1.5349363 -1.3320335 4285550900
3.9808621 1.5088235 -1.3305 4285220930
3.9418783 1.4664347 -1.3139386 4283777095
2.7009795 0.98558432 -0.88518286 4282856502
3.1424294 1.1250687 -1.0342354 4281144848
3.9448559 1.3854226 -1.3059646 4282132258
3.9883773 1.3732862 -1.3179256 4283251503
3.3528757 1.1313061 -1.0989474 4280947718
4.0663743 1.3445753 -1.3387806 4283577637
4.134306 1.3389705 -1.3590224 4281207040
4.1932478 1.3297027 -1.3761971 4291469711
4.2040544 1.3047956 -1.3771173 4290810993
4.1965003 1.2742701 -1.3719034 4290286969
4.1677456 1.2376488 -1.3596357 4280813312
4.1588092 1.2072719 -1.3541152 4292324505
4.1926913 1.1892707 -1.3630093 4288244815
4.2054129 1.1650486 -1.3648496 4290483569
4.2115636 1.138974 -1.3645428 4294302399
4.414485 1.1648881 -1.4298682 4280161037
3.0002596 0.7716558 -0.95694888 4289502878
4.6020012 1.1542014 -1.4875264 4279706150
4.709774 1.1505878 -1.5209559 4279311390
4.7352633 1.1260761 -1.5270897 4279376666
4.6725392 1.0808942 -1.5040878 4278980623
4.6020122 1.0348525 -1.4786323 4281478950
4.4827476 0.9791438 -1.4372289 4288846728
4.4756365 0.94885278 -1.4329352 4287070571
4.4888325 0.92290831 -1.4353887 4288255095
4.5102787 0.89851338 -1.4406025 4288386419
4.5175762 0.8711828 -1.4412159 4288254063
4.5144162 0.84187454 -1.4384557 4294505170
4.497016 0.81010312 -1.431095 4293256653
4.4531412 0.77400649 -1.4151471 4286544233
4.4625001 0.74745536 -1.4166806 4287200876
4.4594855 0.71884614 -1.414227 4285621840
4.4666338 0.69190764 -1.4151471 4287070577
4.4839754 0.66645026 -1.4194407 4287204475
4.4879799 0.63892454 -1.4194407 4286808686
4.531425 0.61677641 -1.4323218 4288651155
5.028759 0.65319556 -1.5927218 4278322695
5.0156693 0.62022096 -1.5872014 4279570193
4.9361954 0.57964557 -1.5602125 4281411106
4.7920904 0.53290021 -1.5123684 4279701514
4.7753916 0.50139445 -1.5059279 4279241737
4.7357554 0.46786225 -1.4921268 4279834646
4.6333389 0.42902777 -1.458084 4279703058
4.6472631 0.40157622 -1.4617642 4279176977
4.7777195 0.38336217 -1.5031677 4278979596
4.8540187 0.35954133 -1.5270897 4278979596
4.8257465 0.32768008 -1.5172756 4278913803
4.6718683 0.28840676 -1.4669781 4278914316
4.6783018 0.26000056 -1.4685115 4278650892
4.8233552 0.23842059 -1.514822 4279706930
4.8532543 0.21006219 -1.5240228 4281086779
4.8344779 0.17953262 -1.5175823 4281083681
1.8026015 0.055132657 -0.53984749 4282006317
1.8419178 0.04505004 -0.55242181 4284700481
1.7603186 0.032196067 -0.52604628 4284894772
1.7148 0.02080879 -0.51132512 4284170287
1.7329794 0.01040741 -0.51715219 4281082393
1.7111188 -0.00023808831 -0.51009834 4280623130
1.7234585 -0.010806487 -0.51408529 4280688925
1.7157459 -0.021291938 -0.51163173 4280820511
1.7136797 -0.031785153 -0.5110184 4280820511
1.7163069 -0.042368017 -0.51193845 4280622616
1.7312367 -0.053357121 -0.51684558 4280359191
4.8716822 -0.17794617 -1.5295433 4284443764
4.8581362 -0.20731035 -1.5255562 4279840056
4.861526 -0.23734634 -1.5270897 4289579466
4.8514247 -0.26670349 -1.5243294 4287410350
4.8487468 -0.29640839 -1.5240228 4287673009
4.8335419 -0.32526273 -1.5197291 4287409062
1.8649929 -0.13772193 -0.56131589 4290693830
4.8823204 -0.38877138 -1.5369039 4287607729
4.8163037 -0.41328469 -1.5163555 4287213739
4.8923473 -0.45004708 -1.541811 4287606700
4.8165531 -0.47291368 -1.5181956 4280826939
4.7955737 -0.50058544 -1.5123684 4292211440
4.807549 -0.5316714 -1.5172756 4288594624
4.8183775 -0.56281292 -1.521876 4288858566
4.8290043 -0.59410727 -1.5264764 4287540388
4.8781309 -0.63054663 -1.5436511 4290231212
4.973208 -0.67386234 -1.5758538 4283320127
4.9915977 -0.70756549 -1.5832144 4283391076
4.9730387 -0.73609287 -1.578614 4278195740
4.9270372 -0.76021647 -1.5651195 4288654766
4.8292389 -0.77551562 -1.534757 4282533449
4.8337784 -0.80669719 -1.5378239 4278192392
4.8718805 -0.84380317 -1.5519317 4279509790
4.8675475 -0.87384862 -1.5522385 4279771941
4.875196 -0.90613079 -1.5565321 4280101424
4.8471103 -0.93172061 -1.5491716 4279176462
4.6181669 -0.9171865 -1.4758722 4284176212
4.6003304 -0.94302398 -1.4718851 4285230442
4.6289144 -0.97850835 -1.4832327 4280164383
4.7446604 -1.033398 -1.5234094 4280100639
4.930491 -1.1055547 -1.5868946 4283323212
4.9273248 -1.1366417 -1.5881214 4287863183
4.8878412 -1.1591742 -1.5773872 4287731597
4.8797121 -1.1889185 -1.5770805 4286020985
4.8132272 -1.2040684 -1.5574522 4279375892
4.7965283 -1.2312149 -1.5543853 4287402388
4.7612681 -1.2533602 -1.5451845 4278522897
4.721323 -1.2738808 -1.5344503 4280237122
4.6748838 -1.2921852 -1.5215693 4280568668
4.6183248 -1.3071195 -1.5053146 4280109922
4.546217 -1.3169104 -1.4838461 4280242271
4.4942441 -1.3318108 -1.4691249 4280900454
4.2400246 -1.2848961 -1.386318 4284179035
4.1529546 -1.2864079 -1.3596357 4289960058
4.1114054 -1.3012484 -1.3482882 4290152800
4.106966 -1.3276211 -1.349515 4289954904
4.1095896 -1.356373 -1.3531952 4290284121
4.1138191 -1.385814 -1.3574889 4290218327
4.1007376 -1.409484 -1.3559555 4290414677
4.0785375 -1.4298992 -1.3513551 4290150994
4.0625162 -1.4523364 -1.3489015 4290414167
4.0553174 -1.4778876 -1.349515 4290283610
4.0479579 -1.5034049 -1.3501283 4290548071
4.3974471 -1.6638685 -1.4737253 4287918930
4.4111371 -1.7000551 -1.482006 4284106024
4.4706244 -1.7545428 -1.5062346 4283184156
4.4792218 -1.7897056 -1.5129819 4282986260
4.4831462 -1.823248 -1.5181956 4283053338
4.4771514 -1.8529043 -1.5200357 4283057722
2.6575694 -1.119519 -0.88794315 4281546026
2.6865261 -1.15116 -0.90051746 4283585609
2.6637034 -1.1607846 -0.894997 4281150755
2.4947653 0.99790657 -0.85912758 4282791203
3.9773242 1.5624435 -1.3908089 4285616691
3.9788747 1.5349391 -1.3879488 4287528559
3.9022059 1.477929 -1.3571219 4288119409
3.9103122 1.4536273 -1.3568043 4282595364
3.1655607 1.1547937 -1.0879444 4279306756
3.9305341 1.4064906 -1.3577576 4290161575
3.9408796 1.3829745 -1.3583932 4287068273
3.2212479 1.1083577 -1.1003387 4280950036
4.0671687 1.371461 -1.3971649 4280554251
4.0998158 1.3545082 -1.4057456 4279239169
4.1161685 1.3319532 -1.4086058 4280091394
4.1224566 1.3060993 -1.4079702 4282853926
4.1403546 1.2838678 -1.411466 4281932309
4.1663017 1.2639424 -1.417822 4280420613
4.1112561 1.2197521 -1.3958937 4283448890
4.1204848 1.1950309 -1.3965293 4286604374
4.133213 1.1712762 -1.3984362 4285485632
2.9267585 0.81014043 -0.9763962 4291471241
4.2360654 1.144447 -1.4292629 4281214246
4.4988122 1.1858376 -1.5179294 4279508773
4.5638585 1.1730769 -1.5379509 4279508260
4.6151185 1.1561069 -1.5532054 4279441952
4.6700249 1.1394504 -1.569731 4279376159
4.7138295 1.1195351 -1.582443 4279375642
4.7547922 1.0984846 -1.5942017 4279639068
4.789197 1.0755194 -1.6037357 4280032793
4.4946289 0.98046279 -1.5004504 4284638295
4.4931397 0.95129532 -1.4979079 4285427803
4.4979639 0.92351741 -1.4975901 4286479461
4.5072656 0.89664066 -1.4988613 4290030474
4.5201306 0.87040144 -1.5014037 4290620293
4.5067434 0.83918017 -1.4950477 4287527513
4.4987426 0.8091628 -1.4905984 4293844419
4.4709258 0.77587247 -1.4794755 4286740062
4.4718614 0.74779958 -1.4782043 4287134820
4.4707489 0.71944338 -1.4762974 4289305472
4.4722681 0.69156331 -1.4753441 4290160781
4.5101914 0.66911519 -1.4867849 4291937960
4.5423751 0.64542782 -1.4963189 4286742892
4.9230046 0.66868854 -1.6237571 4281944383
4.9241943 0.63810366 -1.6228038 4282796878
4.9139018 0.60613728 -1.6180367 4284832853
4.9165864 0.57586455 -1.6177189 4279638037
4.8587723 0.5388971 -1.5970619 4279308563
4.7752304 0.4999972 -1.5678241 4279176466
4.8725681 0.4799749 -1.5996042 4279176466
4.6969771 0.43360978 -1.5395398 4279242768
4.748672 0.40900847 -1.5560656 4279045648
4.7529826 0.38001442 -1.5567012 4279045648
4.7504969 0.35049507 -1.5551121 4279046418
4.7553964 0.32153165 -1.5560656 4279112211
4.7506547 0.29194045 -1.5538409 4279375385
4.75425 0.26289004 -1.5544765 4279574564
4.7605085 0.23394588 -1.5560656 4279708217
4.7571182 0.20452829 -1.5544765 4280957248
4.7620735 0.17547466 -1.5557477 4278190592
1.8317841 0.056485184 -0.57278872 4280295448
1.8121909 0.044757158 -0.5661149 4284305721
1.7906275 0.033236943 -0.55880547 4284567606
1.7614069 0.021890461 -0.54895365 4284171566
1.7254789 0.010863542 -0.53687716 4281213208
1.7198241 0.00027637064 -0.5349704 4281082403
1.7141045 -0.010240997 -0.53306359 4281016610
1.7016842 -0.020606285 -0.52893215 4280885024
1.6996298 -0.031012207 -0.52829653 4280885024
1.6908767 -0.041230377 -0.52543634 4280621852
1.6924874 -0.051662918 -0.52607197 4280359707
4.7601843 -0.17525075 -1.5551121 4293393402
4.7362847 -0.20347682 -1.5474849 4287147948
4.7519927 -0.23337284 -1.5532054 4287541934
4.7391114 -0.26189736 -1.5493917 4287410091
4.742147 -0.29126209 -1.5509807 4287409837
4.7336488 -0.31990582 -1.5487561 4287344809
4.7769847 -0.35229594 -1.5640105 4287673261
1.8684349 -0.14908926 -0.58677197 4291484896
4.7328691 -0.43676385 -1.5516163 4287213741
4.7338743 -0.46616799 -1.5528876 4287606440
4.7177229 -0.49382272 -1.5484383 4282078540
4.7061229 -0.52181971 -1.5455781 4286748049
4.7103662 -0.55156893 -1.5481205 4288657846
4.6880727 -0.57813823 -1.5417645 4289515213
4.7747049 -0.61859506 -1.5722734 4279050781
4.8018236 -0.65209341 -1.5827608 4284703587
4.8512392 -0.68914992 -1.6008755 4278981138
4.8450437 -0.71862525 -1.6002399 4292009944
4.8039994 -0.74268776 -1.5878457 4289904819
4.7553544 -0.76506847 -1.572909 4284440666
4.8459582 -0.81018764 -1.6053247 4280822309
4.843698 -0.84039313 -1.6062781 4279376666
4.8487153 -0.87194449 -1.6097739 4279573538
4.8274274 -0.89872783 -1.6043713 4279636235
4.5350609 -0.87309855 -1.5064886 4291672229
4.5231085 -0.89961344 -1.504264 4282989609
4.5620847 -0.93650526 -1.5195184 4293123786
4.5293522 -0.95878345 -1.5103022 4291937972
4.5233841 -0.98655695 -1.5103022 4289897360
4.5089197 -1.012423 -1.507442 4289898385
4.5229464 -1.0447668 -1.5144336 4287399534
4.4961562 -1.0676782 -1.507442 4289308822
4.7787533 -1.165832 -1.6072315 4288192661
4.7917438 -1.2002016 -1.6142231 4283127116
4.6428719 -1.193224 -1.5652817 4282203966
4.7243958 -1.2451358 -1.5961084 4279638817
4.6846299 -1.265444 -1.5849855 4280232763
4.6429667 -1.2848055 -1.5732268 4278526512
4.5939455 -1.3016354 -1.5589257 4286887104
4.5166655 -1.3097242 -1.5347729 4279780433
4.4649124 -1.3244666 -1.5195184 4283922819
4.2407618 -1.2863176 -1.4438818 4288000444
4.2038097 -1.3033267 -1.4337121 4282006335
4.0746155 -1.2907176 -1.3911268 4290814853
3.9962559 -1.2929227 -1.3663383 4289954391
4.0098543 -1.3245584 -1.3739655 4290676825
3.9935656 -1.3464105 -1.3711052 4290349149
3.9932983 -1.3736657 -1.3739655 4290218078
3.9955299 -1.4019104 -1.3777791 4290480999
3.9904237 -1.427678 -1.3790503 4289757274
3.9833698 -1.4527858 -1.3796859 4290676828
3.9770472 -1.4781911 -1.3806393 4290742619
3.9599221 -1.4995433 -1.3777791 4290087006
3.9975305 -1.5419014 -1.3946226 4289300835
4.4760118 -1.758135 -1.5703666 4283380507
4.4933109 -1.7968342 -1.5805362 4281210629
4.4962516 -1.830091 -1.585621 4282529571
2.6640232 -1.141757 -0.92999721 4282863691
2.6465378 -1.1535341 -0.92618364 4280032274
2.4042401 0.99613732 -0.86206377 4284307263
2.4181798 0.98457599 -0.8650161 4281211394
3.9623177 1.5858088 -1.4404025 4283051041
3.9877965 1.567692 -1.4463073 4281670159
3.9277277 1.5162975 -1.4203919 4291804567
3.91046 1.4821175 -1.4105506 4288843633
2.6437778 0.98311138 -0.93784153 4282726173
2.6506476 0.96719509 -0.9381696 4281347107
3.1527441 1.1287657 -1.1212173 4286806905
3.1694138 1.1128454 -1.1248257 4281671707
3.9612284 1.3639299 -1.413175 4281015068
3.9901073 1.3465515 -1.42072 4280819488
4.0054693 1.3244178 -1.4233443 4278386688
4.0153174 1.3003986 -1.4240004 4289963169
4.0124164 1.272307 -1.4200639 4290817710
4.0147343 1.2459819 -1.4180956 4285685341
3.9997082 1.2144566 -1.4098946 4279765254
2.8498495 0.84590143 -0.99065638 4286015846
2.854079 0.82813561 -0.99032831 4283580981
4.0259285 1.1419194 -1.4115348 4281672473
4.221293 1.1694525 -1.4794395 4280557339
4.2721572 1.1553783 -1.4951856 4280757814
4.284646 1.1305908 -1.4971539 4279575080
4.524776 1.1643705 -1.5808046 4279574564
4.5776467 1.1480869 -1.5972067 4279113754
4.6341567 1.1320955 -1.6149211 4279310620
4.6796136 1.1128279 -1.6286988 4279309849
4.7158027 1.0909134 -1.6391962 4279375642
4.7463694 1.0673518 -1.6477253 4278849039
4.486125 0.97988236 -1.5529211 4282861632
4.4735713 0.9484145 -1.5463601 4284901207
4.4700541 0.91904247 -1.5430797 4285690456
4.4885788 0.89418465 -1.5476724 4285821783
4.5051112 0.86877578 -1.5516089 4286018133
4.4824986 0.83591408 -1.5417676 4286806108
4.4680209 0.80487216 -1.5348787 4286937176
4.4430938 0.77225745 -1.5243814 4287331932
4.4458857 0.74466807 -1.5237253 4285227074
4.4643598 0.71963322 -1.5286459 4289766021
4.496696 0.69657248 -1.5384872 4289964934
4.5158353 0.67119402 -1.5437359 4286873952
4.6442504 0.66121292 -1.5873655 4281021222
4.8035955 0.65389276 -1.6418205 4281089335
4.8159485 0.62550324 -1.6447729 4286943118
4.830008 0.59721899 -1.6483814 4280692272
4.8307672 0.56724018 -1.6473973 4286683294
4.8129382 0.50534582 -1.6388681 4290104011
4.7351027 0.46779761 -1.6106565 4287208870
4.6381783 0.42947716 -1.575884 4287142554
4.6416678 0.40109128 -1.576212 4278851868
4.6478076 0.37290615 -1.5775242 4279377701
4.647182 0.34417069 -1.5765401 4279247147
4.6435513 0.31526428 -1.5745718 4279313459
4.6623697 0.28781798 -1.5804766 4279378739
4.6621618 0.25909948 -1.5798205 4279642942
4.6683812 0.23072249 -1.5814607 4279908169
4.6329021 0.20047149 -1.5686671 4281287502
1.8152496 0.066678859 -0.58913249 4292993767
1.8250667 0.05583436 -0.59241289 4288121725
1.8045988 0.044113547 -0.58519596 4284632117
1.7831123 0.032628134 -0.57765096 4284567606
1.7558858 0.021335425 -0.56813776 4283647021
1.7493713 0.010516929 -0.56584144 4281475870
1.7238969 -0.00023111905 -0.55698431 4281212960
1.7134719 -0.010750655 -0.55337584 4281147683
1.7029831 -0.021142269 -0.54976737 4280950815
1.7009323 -0.031557433 -0.54911131 4280753948
1.6931516 -0.041812219 -0.54648697 4280360471
1.6947515 -0.052257337 -0.54714304 4280228632
4.6464176 -0.16977221 -1.5729316 4292603886
4.6254683 -0.19743788 -1.5660428 4286949797
4.6119037 -0.22521964 -1.5617782 4286949537
4.6359024 -0.2549074 -1.5706353 4286883745
4.640852 -0.28374988 -1.5729316 4287278756
4.6107469 -0.31032431 -1.5630903 4287212710
4.6181774 -0.33929929 -1.5663707 4287147176
4.6028247 -0.36658287 -1.5617782 4287081383
4.6146069 -0.3960264 -1.5666988 4286555811
4.6026826 -0.42347056 -1.5634184 4287740344
4.6046987 -0.45216453 -1.5650586 4287214513
4.6309648 -0.48344317 -1.5752279 4287477426
4.6260333 -0.51164192 -1.5745718 4280171318
4.6218686 -0.53990775 -1.5742438 4282605145
4.6109681 -0.56733578 -1.5716194 4289644743
4.6017785 -0.59489226 -1.5696512 4292013032
4.6972723 -0.63653904 -1.6044236 4279704861
4.7204032 -0.66918749 -1.6139369 4280624930
4.7470469 -0.70269614 -1.6247623 4282862145
4.7473145 -0.7325294 -1.6264025 4286346595
4.729672 -0.75955075 -1.62181 4286347626
4.7482181 -0.79243916 -1.630011 4290623148
4.7507129 -0.82284671 -1.6326354 4292992474
4.7372055 -0.85048074 -1.6296829 4293848806
4.7012482 -0.8738423 -1.6188575 4290950048
4.538085 -0.87239516 -1.5630903 4281671180
4.4872427 -0.89121825 -1.5470163 4280620559
4.4853911 -0.9194926 -1.5483284 4278977538
4.486135 -0.94836313 -1.5506247 4278979594
4.4857697 -0.97707647 -1.552593 4278914055
4.466785 -1.0016916 -1.5480003 4282137912
4.4688392 -1.0309896 -1.5509528 4282203192
4.4844904 -1.063617 -1.5588259 4281479982
4.7587471 -1.1594758 -1.6592067 4280626213
4.7432947 -1.1865917 -1.6562544 4280034592
4.7249436 -1.2128578 -1.6523179 4278979085
4.5758052 -1.2045859 -1.6014713 4288914088
4.6376481 -1.2513255 -1.6264025 4280954924
4.5889063 -1.2684425 -1.6116406 4286093459
4.5437675 -1.2860371 -1.5981909 4283203197
4.472271 -1.2955099 -1.5752279 4287215543
4.2359762 -1.2553468 -1.4925612 4290040019
4.2290983 -1.2815883 -1.4928893 4279776320
4.2265697 -1.3091891 -1.4948575 4279842374
4.1725206 -1.3205732 -1.4781274 4278850330
3.9351087 -1.2721179 -1.3944765 4289832592
3.9245377 -1.2953517 -1.3934925 4289036372
3.9138296 -1.3185039 -1.3925083 4290677338
3.9029853 -1.3415735 -1.3915242 4290549880
3.8688252 -1.3564398 -1.3820109 4294369483
3.8808904 -1.3874615 -1.3895559 4289035370
3.9051473 -1.423207 -1.4016935 4291269232
3.9087403 -1.4517429 -1.4062861 4290611807
3.9024098 -1.4767014 -1.4072702 4290413915
3.874763 -1.4934889 -1.4003813 4290545761
3.8452988 -1.5093031 -1.3928363 4290023017
4.5018487 -1.79874 -1.6418205 4286405943
4.4924774 -1.8270403 -1.6424766 4283448607
4.4864202 -1.8567374 -1.6444448 4280033295
2.6951215 -1.154839 -0.97655058 4280101157
2.6897171 -1.1721082 -0.97720659 4282929221
2.6591508 -1.1782665 -0.96834946 4281085475
2.3347986 1.001089 -0.87271953 4293513150
2.3174868 0.97688019 -0.86357361 4294304201
2.3303912 0.96552199 -0.86628354 4294040264
3.969419 1.6158414 -1.5010784 4281934364
3.9810061 1.5921537 -1.5017558 4281935134
3.9968307 1.5701044 -1.504127 4282394915
3.960741 1.5279455 -1.4865127 4283645231
3.9322052 1.4892879 -1.471947 4292202949
2.6280522 0.97709358 -0.96756613 4283186998
3.1060219 1.133082 -1.1484522 4289172370
3.1492381 1.1269959 -1.1623405 4282460193
3.8778992 1.3608793 -1.4377344 4280751880
2.7144103 0.93403101 -0.99161661 4287528574
2.7361386 0.92276818 -0.9977138 4293978088
2.7497897 0.90861785 -1.0007625 4293846755
2.7633703 0.89433461 -1.0038111 4289963426
2.7777753 0.88020301 -1.0071985 4283973694
3.9226654 1.2163866 -1.4367182 4281934364
3.9354575 1.1939331 -1.4387506 4281868571
3.9409053 1.1692281 -1.4380732 4281869086
3.9525237 1.146335 -1.4397668 4281540893
4.0862188 1.1579636 -1.4871901 4280097815
4.2981877 1.1895694 -1.5637449 4279245597
4.2881474 1.1585127 -1.5573089 4279246117
4.2824373 1.128823 -1.5525665 4280036409
4.2883716 1.1022911 -1.5522279 4279181352
4.5588245 1.14201 -1.6501231 4278982943
4.6087079 1.1244948 -1.6660438 4279179546
4.6557999 1.105758 -1.6809483 4279113494
4.6918335 1.0839447 -1.6917878 4279244310
4.725019 1.0611124 -1.7016113 4278849039
4.4676075 0.97457057 -1.6043935 4281743154
4.4744234 0.94733435 -1.6047322 4284242509
4.4792309 0.91967285 -1.6043935 4284243529
4.4792523 0.89107049 -1.602361 4285032274
4.4800158 0.86268044 -1.6006674 4284965706
4.4676499 0.83190423 -1.5942312 4285490508
4.4550757 0.80131257 -1.5877953 4286082645
4.4562006 0.77331847 -1.5864403 4286608989
4.457149 0.7453407 -1.5850854 4286083672
4.506228 0.72514963 -1.6013448 4289374605
4.5477862 0.70323437 -1.6148943 4289699720
4.592967 0.68138826 -1.6297988 4279965964
4.7116404 0.66946417 -1.6714636 4279308302
4.7203207 0.64117426 -1.6731572 4286347124
4.7120361 0.61062795 -1.6687536 4279899419
4.7483778 0.58573282 -1.6806095 4280561210
4.7458563 0.52638245 -1.6772221 4281812553
4.6582265 0.48775575 -1.6443645 4292143596
4.5946503 0.45262074 -1.6203141 4285895322
4.5420637 0.41932157 -1.6003286 4286027933
4.5417395 0.39120212 -1.5993124 4286290842
4.5403023 0.36302754 -1.5979574 4288856767
4.538691 0.3348853 -1.5966024 4280500807
4.5453544 0.30734709 -1.5982962 4279908419
4.5527892 0.27979732 -1.6003286 4279579972
4.5544205 0.25185665 -1.6003286 4280502873
4.5427232 0.22326106 -1.5955863 4281292391
4.5402479 0.19522187 -1.5942312 4282011991
1.8221701 0.067384273 -0.61460125 4282204744
1.8300729 0.05643278 -0.61731118 4287926153
1.8219193 0.044995341 -0.61426252 4284170798
1.79488 0.033314958 -0.60443914 4284499240
1.7771753 0.022082947 -0.59800309 4283909684
1.7650464 0.011103737 -0.5935995 4281805345
1.7359138 0.00027531755 -0.58309865 4281083163
1.7142431 -0.010241856 -0.57530767 4280885534
1.7103846 -0.020713629 -0.57395273 4280688926
1.7064625 -0.031138442 -0.57259774 4280557339
1.7005956 -0.0414696 -0.57056534 4280294678
1.6956069 -0.051758867 -0.56887168 4280228887
4.5628157 -0.19601011 -1.602361 4286883753
4.5192385 -0.22192307 -1.5871178 4287739062
4.5224895 -0.24990837 -1.5888115 4286093979
4.526505 -0.2779997 -1.5908439 4286554782
4.538795 -0.30672133 -1.595925 4286948768
4.5387044 -0.33470365 -1.5966024 4286752161
4.5262485 -0.36172095 -1.5928763 4287213739
4.5136323 -0.38859805 -1.5891502 4287016875
4.5261531 -0.41767043 -1.59457 4287674551
1.7556722 -0.17264383 -0.59326077 4287870388
4.4523768 -0.46602586 -1.5698422 4287607476
4.5130234 -0.50039256 -1.5928763 4287082153
4.4967847 -0.52654141 -1.5881341 4290303954
4.495337 -0.55435371 -1.5888115 4281418818
4.505847 -0.58374059 -1.5938926 4292077532
4.5618486 -0.61948484 -1.6155717 4278257665
4.5896335 -0.65196592 -1.6270889 4281546802
4.6460409 -0.6890927 -1.6491069 4281216810
4.6649709 -0.72118288 -1.6575752 4280624159
4.6743917 -0.75203598 -1.6626563 4287731079
4.6631932 -0.77961671 -1.6602852 4285429091
4.6638842 -0.80918038 -1.6623176 4286744175
4.6532755 -0.83678257 -1.6602852 4286545252
4.6360288 -0.86307919 -1.6558816 4289503879
4.5705924 -0.87994224 -1.6338637 4282332194
4.4875922 -0.89254647 -1.6054096 4279242506
4.4986215 -0.92347193 -1.6115069 4280033562
4.4845858 -0.94930327 -1.6084583 4281349676
4.4952235 -0.9804126 -1.6145556 4281612846
4.487287 -1.0075638 -1.6138781 4281743662
4.4773531 -1.0342311 -1.6125232 4281283113
4.4874005 -1.0655984 -1.6186204 4281152297
4.5100274 -1.1002507 -1.6294601 4280888871
4.6035848 -1.1530573 -1.6667212 4280954665
4.5863996 -1.1787056 -1.6629951 4280032023
4.5545163 -1.200349 -1.6538491 4280425500
4.4199028 -1.1939114 -1.6064259 4287464060
4.3227224 -1.1961594 -1.5728908 4282528817
4.4112554 -1.2498565 -1.6087971 4280031508
4.2390423 -1.2291952 -1.5471467 4285626480
4.2178898 -1.2511677 -1.5420656 4283650638
4.2542505 -1.2904104 -1.5586638 4280822831
4.2579355 -1.3201128 -1.5630674 4278390288
4.2192593 -1.336551 -1.5515504 4280100906
4.1250429 -1.3346028 -1.5190315 4289576371
3.8559115 -1.2736913 -1.42012 4289896321
3.8408911 -1.2949215 -1.4174101 4290218592
3.8284249 -1.3169336 -1.4157164 4290480989
3.8247111 -1.3419576 -1.4174101 4290480738
3.8296931 -1.3701558 -1.4224912 4289889113
3.8212137 -1.3936285 -1.4224912 4291599731
3.8231738 -1.4209834 -1.426556 4291532656
3.8170223 -1.445415 -1.4275723 4290677347
3.8063257 -1.4681312 -1.4268948 4290480737
3.7779801 -1.4838896 -1.4194425 4290678116
3.7993796 -1.5192727 -1.4312984 4290348382
4.4923587 -1.8285062 -1.7043211 4289300070
4.5436397 -1.8819647 -1.7287103 4282332194
2.6644449 -1.1419377 -1.0017787 4280168231
2.6754994 -1.1661621 -1.0088922 4283850837
2.6674335 -1.1821754 -1.0085535 4280690717
2.2417784 0.96114504 -0.86410046 4286139965
2.253679 0.94992328 -0.86653817 4284233770
2.2603309 0.9364363 -0.8668865 4283510563
2.2851315 0.93033487 -0.87454784 4282524957
2.2977583 0.91908455 -0.87733376 4282329122
2.3966923 0.9416911 -0.91459596 4282329890
3.8976607 1.5046805 -1.5100946 4291209874
3.8919201 1.4750847 -1.5041745 4283250466
2.8036678 1.0426434 -1.0692167 4290558386
2.9588132 1.0797867 -1.1280701 4280685838
3.8257565 1.3699875 -1.4676088 4282592292
3.8340905 1.3464873 -1.4676088 4280421377
3.830759 1.3189659 -1.4630816 4281804059
3.8423324 1.2966359 -1.4644746 4282526751
3.8475463 1.2721517 -1.4634298 4282591516
3.8338783 1.2415822 -1.4550719 4283183140
3.8432114 1.2186017 -1.4557685 4282788383
3.8622537 1.1986125 -1.4602957 4282722076
3.8695357 1.1748916 -1.4602957 4282459417
3.8712804 1.1495239 -1.4582062 4281935132
3.9709783 1.1526909 -1.4940754 4280951066
4.2340751 1.2010214 -1.5929769 4279771681
4.2883368 1.1880456 -1.6110857 4278853151
4.2982607 1.1624453 -1.6121304 4279115042
4.2989678 1.1343739 -1.6096927 4279246377
4.3004012 1.1065716 -1.6076032 4279970870
4.3225656 1.0840446 -1.6135234 4279049251
4.5777216 1.1182939 -1.7085942 4279376664
4.6182384 1.0982169 -1.7214793 4279309840
4.6130176 1.0671099 -1.7169521 4279113240
4.6121626 1.0371377 -1.7141662 4279309592
4.5003066 0.98298371 -1.6692426 4281545521
4.4814949 0.95009643 -1.65984 4283058752
4.4743857 0.91993433 -1.6549646 4282993721
4.4652376 0.88952863 -1.6493926 4283586369
4.4650893 0.86104727 -1.6473031 4283519806
4.4527807 0.83036417 -1.6406865 4284241472
