# .PCD v0.7 - Point Cloud Data file format
VERSION 0.7
FIELDS x y z rgb
SIZE 4 4 4 4
TYPE F F F U
COUNT 1 1 1 1
WIDTH 1095
HEIGHT 1
VIEWPOINT 0 0 0 1 0 0 0
POINTS 1095
DATA ascii
1.6596727 -0.019800998 -0.10678311 4286727991
1.6545396 -0.029893043 -0.10634994 4286794043
1.6543252 -0.040044546 -0.10634994 4285938477
6.3753853 -0.74555057 -0.52063435 4284308567
6.3143315 -0.77771014 -0.51569617 4289502364
6.3005486 -0.81528836 -0.51491648 4294965487
6.2993765 -0.85446829 -0.51526302 4294965734
6.2940145 -0.89310443 -0.51526302 4294898653
6.3061547 -0.93433625 -0.5168224 4292860880
6.2943954 -0.97209984 -0.51630265 4291479229
6.2784762 -1.0091217 -0.51543629 4294966258
6.2603755 -1.0456564 -0.51439667 4294835958
4.5017462 1.188776 -0.42534751 4286613642
4.4386134 1.1429983 -0.41812253 4284441957
4.434927 1.1130747 -0.41703385 4288980391
4.446506 1.0870243 -0.41752869 4286742141
4.50246 1.0714822 -0.42257631 4285690220
5.0479326 1.1687557 -0.47760499 4294704364
5.0336528 1.1329483 -0.47542757 4291282358
5.0424538 1.1024665 -0.47562551 4294639094
4.9946146 1.0599253 -0.47008306 4286482819
6.3486652 0.8657226 -0.59953898 4293850093
3.5623469 0.46300545 -0.31954604 4285230182
6.4802761 0.80281955 -0.61171257 4294112229
6.5058331 0.76548785 -0.61379099 4294900976
6.4985399 0.72422963 -0.61260337 4286876021
6.3069196 0.6636858 -0.59300679 4284904538
6.3187947 0.62576079 -0.59379858 4278194433
6.5563478 0.60872996 -0.61715609 4285367158
6.5207934 0.48454571 -0.61260337 4284244828
6.5990953 0.44968066 -0.62012523 4283784793
1.8394637 0.11316294 -0.14555255 4279175936
2.1093709 0.1169524 -0.17237405 4288716433
2.0196078 0.099498987 -0.16336757 4287202933
1.8312937 0.078850828 -0.14456281 4285555020
1.795945 0.066268407 -0.14099981 4289170802
1.7774204 0.054653887 -0.13911933 4291341965
1.7588216 0.04326921 -0.13723886 4292526498
1.7341813 0.03200065 -0.13476455 4280881674
1.7005148 0.020919772 -0.13139948 4284434498
1.6946408 0.010444284 -0.13080566 4283842098
1.6697956 2.8056675e-05 -0.12833133 4284960834
1.665784 -0.01019606 -0.12793545 4285354818
1.658725 -0.020336462 -0.12724264 4284959801
1.656579 -0.030478625 -0.12704469 4284171314
1.6543714 -0.040595219 -0.12684676 4284432948
1.6600591 -0.050924335 -0.12744059 4279897865
6.5772309 -0.23868707 -0.61685914 4288714129
6.5905552 -0.27966991 -0.61834377 4285097308
6.5728126 -0.31933373 -0.61676019 4292204490
6.5766916 -0.359983 -0.61735404 4285625189
6.5793252 -0.40063155 -0.61784887 4284241996
6.5866718 -0.44165796 -0.61883861 4282530098
6.5828457 -0.48199221 -0.6187396 4282137131
6.5807557 -0.52245331 -0.61883861 4281151776
6.5774255 -0.56282222 -0.61883861 4287203964
6.5738487 -0.60316998 -0.61883861 4286545529
6.5759664 -0.64407593 -0.61943245 4287399809
6.5481362 -0.68194366 -0.61705709 4287596664
6.543829 -0.72210938 -0.61705709 4284768843
6.4592133 -0.75293005 -0.60904032 4284966484
6.3023672 -0.77389967 -0.59379858 4282265635
6.2629566 -0.80810529 -0.59033453 4284960579
4.6159678 -0.62472409 -0.42554545 4288252282
4.6120481 -0.65303546 -0.42554545 4291282099
6.1584234 -0.91017175 -0.58142704 4281808946
6.1812444 -0.95233089 -0.58429724 4294967290
6.170372 -0.98945338 -0.58380234 4293388776
6.1435709 -1.0238642 -0.58172393 4283853425
4.4855657 1.2414106 -0.48163855 4286219910
4.4384093 1.1990944 -0.4753145 4290822077
4.3748231 1.1245044 -0.46632767 4286016341
4.3893528 1.0995712 -0.46721524 4288583557
4.4375343 1.0827444 -0.47198606 4291216067
4.4392595 1.0543479 -0.47143131 4285360236
5.0976791 1.1447703 -0.54532307 4288650130
5.0599403 1.1037303 -0.54021943 4294177779
5.0063362 1.0599046 -0.53334057 4285825666
6.265862 0.89016968 -0.66858691 4294245363
6.1658325 0.83740199 -0.65671545 4281743145
6.3068671 0.81716776 -0.67202634 4280030995
6.4182897 0.79158598 -0.68400878 4287268734
6.4230256 0.75218916 -0.68400878 4288979855
6.3652906 0.70586699 -0.677019 4285956451
6.1550121 0.64435613 -0.65294319 4283260224
6.2983055 0.62030351 -0.66858691 4280034580
6.4712191 0.59725451 -0.68755913 4284704087
6.4430766 0.55481017 -0.68400878 4286478967
6.4740977 0.51748121 -0.68711531 4283781972
6.4811163 0.47803932 -0.68755913 4283782475
6.4690533 0.43725851 -0.68589491 4281874989
6.4954214 0.39901799 -0.68855768 4280167202
2.0630937 0.11430089 -0.19272846 4286940792
2.0468814 0.10081194 -0.19084233 4287660396
1.8647654 0.080410711 -0.17042777 4286145869
1.8076206 0.066849343 -0.16399276 4289368698
1.8328308 0.05651724 -0.16676646 4291078791
1.8083049 0.044662021 -0.16399276 4293250732
1.7081854 0.031724598 -0.15278697 4283712305
1.6755543 0.020842455 -0.14912567 4284633669
1.6806195 0.010591221 -0.14968041 4284502597
1.6816468 0.00027886932 -0.14979136 4284699460
1.6816167 -0.010039525 -0.14979136 4285028427
1.6735735 -0.020259457 -0.14890376 4285225806
1.6863352 -0.030766586 -0.1503461 4285159500
1.6851212 -0.041088708 -0.15023515 4284435264
6.5628443 -0.2417648 -0.69521457 4289906381
6.5582585 -0.28190091 -0.69488174 4286881178
6.524641 -0.32057375 -0.69133139 4287870390
6.5493441 -0.36208498 -0.694327 4291820538
6.5410471 -0.40189815 -0.69366127 4292081655
6.5325089 -0.44162315 -0.69299561 4292409587
6.5128264 -0.48045358 -0.69110948 4288989374
6.5087652 -0.52032721 -0.69099855 4286027406
6.50248 -0.55999845 -0.69066566 4280825399
6.4919944 -0.59924656 -0.68988907 4281811779
6.4723706 -0.63750976 -0.68811387 4284310621
6.4495573 -0.67524415 -0.68600583 4284239936
6.4225736 -0.71228421 -0.68345404 4284830533
4.6877446 -0.54891807 -0.48896116 4284307012
4.6754112 -0.57657576 -0.4879626 4284307263
4.6579871 -0.60346389 -0.48640937 4284439111
4.6285925 -0.62855422 -0.48352468 4284637004
4.614809 -0.6555444 -0.4824152 4285160260
4.5989032 -0.68209726 -0.48108381 4283976764
4.6103458 -0.71273345 -0.48285902 4281278740
4.5774312 -0.73642832 -0.4796415 4287201399
6.0901885 -1.0183098 -0.6513899 4284835163
4.7384272 -0.82211983 -0.49894655 4285626480
4.7841558 -0.86032951 -0.50471586 4285164387
4.7807417 -0.89003229 -0.50493777 4285622109
4.8337431 -0.93062752 -0.51159465 4286406995
4.8630319 -0.96725148 -0.51558882 4286470732
4.8871841 -1.00327 -0.51902825 4286009417
4.8955202 -1.0363266 -0.52069247 4285751647
4.8939242 -1.0674049 -0.52124721 4284312940
4.4674959 1.236894 -0.53678995 4287004030
4.1799507 1.1296355 -0.49888077 4286412396
4.1791267 1.1019402 -0.49789616 4286479986
4.4108372 1.1053911 -0.52583569 4285430139
4.4223566 1.0794837 -0.52645111 4287403159
5.0427313 1.1331501 -0.60288495 4287594868
5.045711 1.1013397 -0.60239261 4289177513
5.1766362 1.0967139 -0.61814708 4284380274
6.1931729 0.99766284 -0.73987508 4283326811
6.2109466 0.96146739 -0.74135208 4283127639
6.2177105 0.92348564 -0.74147516 4290298561
6.011044 0.85508728 -0.71488947 4287072897
3.5549312 0.48298097 -0.40681556 4286612597
6.2149568 0.80645168 -0.73913658 4285423436
6.2710023 0.77463818 -0.74553686 4286079044
6.2815509 0.73684025 -0.74627531 4286148174
6.1103907 0.67874801 -0.72436678 4284118608
5.994031 0.62859166 -0.70935076 4283329886
6.3661432 0.62822014 -0.75526029 4292344314
6.4143457 0.59326738 -0.76079899 4288133811
6.428741 0.55483913 -0.76215291 4284582021
6.4458733 0.51649487 -0.76387602 4289452253
6.4033952 0.4735589 -0.75821429 4289320154
6.4943004 0.44024903 -0.76916856 4288594889
6.406743 0.39482129 -0.75796813 4288330690
6.4357986 0.35699171 -0.76129133 4288927198
2.0142186 0.098531023 -0.21197695 4286281328
1.8541677 0.079207473 -0.19203767 4285750350
1.8099918 0.06616874 -0.186499 4289565311
1.8341697 0.055801027 -0.18945295 4290881927
1.7898338 0.043433204 -0.18391427 4292264354
1.7305331 0.031332087 -0.17652935 4281410590
1.7098542 0.020449674 -0.17394462 4283846473
1.6752144 0.0097318152 -0.16963676 4284173894
1.6802046 -0.00054544932 -0.17025217 4284503629
1.6791773 -0.010849259 -0.17012909 4284767826
1.6681635 -0.021022379 -0.1687752 4285097559
1.6650263 -0.031203948 -0.16840595 4283978306
1.6707562 -0.04156369 -0.16914445 4283974975
6.3729401 -0.23353188 -0.75279868 4290371287
6.2325768 -0.2667169 -0.73556721 4292864999
6.2764192 -0.30717731 -0.741229 4289904306
6.2387443 -0.34372422 -0.73679805 4289449147
6.2563286 -0.38320771 -0.73925966 4290502611
6.2399974 -0.42065671 -0.73753649 4288266680
6.2917337 -0.46293181 -0.74430603 4289517785
6.4203477 -0.51199687 -0.76067591 4290833907
6.388411 -0.54892313 -0.75710654 4291294194
6.3928285 -0.5888381 -0.75809121 4287346099
6.377243 -0.62688977 -0.75661421 4288135364
6.3732767 -0.66600806 -0.75661421 4291747547
6.3315873 -0.70095849 -0.75193709 4284370494
4.6997719 -0.54981685 -0.54872894 4284699200
4.6844902 -0.5771904 -0.54725194 4285158720
4.6631446 -0.60363424 -0.54503649 4285225285
4.5934644 -0.62331152 -0.53678995 4285290057
4.608222 -0.65412992 -0.53912854 4285685058
4.5776153 -0.67847145 -0.53580534 4285422146
4.5566926 -0.70397472 -0.53371292 4286937700
4.5434685 -0.73050523 -0.53260517 4293715660
4.4997463 -0.75183785 -0.52768195 4291673005
4.6827955 -0.81193906 -0.55131364 4289828234
4.748054 -0.85327822 -0.56017554 4290352760
4.7671213 -0.88692784 -0.56325257 4286997307
4.7781572 -0.9193452 -0.56534499 4287984222
4.7957878 -0.95328403 -0.56829894 4280223234
4.8073478 -0.98627836 -0.57051444 4289896347
4.8390727 -1.0237591 -0.57531458 4285822581
4.047565 1.1477739 -0.53572869 4294835182
4.0382986 1.1184226 -0.53343034 4287001706
4.0651712 1.0990516 -0.53626949 4293386204
4.0708804 1.0738349 -0.5361343 4282337611
4.0313315 1.0369924 -0.52964485 4281417538
4.368237 1.095091 -0.5761525 4290430149
5.060833 1.1374238 -0.6694383 4283450171
5.0348039 1.0991669 -0.66484165 4280689963
5.3322468 1.1298479 -0.70540065 4282078035
6.0256 1.1229516 -0.79801047 4283456854
6.0421281 1.087713 -0.79936242 4283914322
6.0486889 1.0506186 -0.79936242 4284831823
6.0784755 1.0174088 -0.80260718 4285291086
6.0572128 0.9756828 -0.79882163 4285946187
6.0895233 0.94258863 -0.80247194 4285025345
6.1196942 0.90884358 -0.80585188 4294768879
3.5354393 0.50306582 -0.44893235 4287072127
5.9467916 0.80872148 -0.78057009 4280951577
6.2287321 0.80815136 -0.8186956 4289828241
6.2227564 0.76858211 -0.81720841 4288312938
6.2332602 0.73107767 -0.81801957 4286216549
5.8112235 0.64548278 -0.7594794 4283660901
5.8929224 0.6179722 -0.7701599 4281089602
6.2407308 0.61573374 -0.81734359 4292083445
6.2374849 0.57679152 -0.81639725 4286945939
6.2379451 0.53825277 -0.81599164 4289252043
6.2203898 0.49830714 -0.81315249 4288595917
6.2776771 0.46414503 -0.82058835 4289254613
6.2072539 0.42066419 -0.81058377 4289188301
6.2225747 0.38336053 -0.81234133 4291551701
6.2287669 0.34539151 -0.81288213 4288586387
6.2139449 0.30633765 -0.81058377 4285029707
1.8096614 0.078359745 -0.20882282 4286146135
1.8348618 0.068168819 -0.21220274 4289630074
1.8372262 0.056970041 -0.21247314 4290553736
1.827636 0.045451723 -0.21112117 4291409298
1.718909 0.032218665 -0.19624951 4280357892
1.6843984 0.021241687 -0.19151764 4283516480
1.6815246 0.010887451 -0.19111204 4283712830
1.6805688 0.00056949665 -0.19097684 4285423448
1.6825224 -0.0097542349 -0.19124724 4285029202
1.6725235 -0.019957306 -0.18989527 4285687386
1.6654348 -0.030092435 -0.18894888 4284701259
1.6592759 -0.040165536 -0.18813771 4283712567
6.2153344 -0.22785898 -0.8103134 4287803042
6.1732335 -0.26425138 -0.80477029 4290891203
6.1200347 -0.29960218 -0.7977401 4294111196
5.9993634 -0.33059868 -0.78151643 4294704362
6.0476584 -0.37049702 -0.7884115 4289837232
6.1737857 -0.41627097 -0.80598706 4290036929
6.1345544 -0.45145187 -0.8009848 4290301895
6.106977 -0.48711318 -0.79760486 4290369483
6.1897569 -0.53196222 -0.809367 4288727232
6.1982164 -0.57102334 -0.81098938 4289319628
6.1955814 -0.60914111 -0.81112456 4289648080
6.1877861 -0.64673281 -0.81058377 4293918455
6.1482482 -0.6807605 -0.80571669 4285557340
4.7396374 -0.55416304 -0.61279088 4284567873
4.730247 -0.58250743 -0.61197966 4284963399
4.6912098 -0.6069411 -0.60711259 4287663494
4.6559792 -0.63145077 -0.6027863 4293255398
4.6510358 -0.65986818 -0.60265112 4286871407
4.5694704 -0.67691714 -0.59197056 4286737492
4.5534811 -0.70312667 -0.59034818 4286078022
4.5471239 -0.73073846 -0.59007782 4286276425
4.5454869 -0.75911528 -0.59048337 4284766282
4.5036454 -0.78055871 -0.58534592 4288122252
4.7191648 -0.84778947 -0.6159004 4280092939
6.035727 -1.1226902 -0.79936242 4285953913
5.9791031 -1.1501549 -0.79246742 4284239687
5.919456 -1.176388 -0.7851668 4285882445
4.8114686 -0.98684824 -0.63185358 4284303415
4.8043537 -1.0161471 -0.6317184 4284964180
5.8851829 -1.282614 -0.78354442 4285362544
5.8743019 -1.3180497 -0.78313881 4284902245
3.84811 1.116987 -0.55816996 4294376437
3.8606002 1.0949755 -0.55905366 4286146654
4.427681 1.226689 -0.64566112 4284897617
4.1038351 1.1098089 -0.59455097 4284835181
4.0761409 1.0755135 -0.58924848 4284378472
4.2818909 1.1018034 -0.61988509 4284512881
5.0235891 1.1621925 -0.72932273 4287989905
4.9756236 1.118964 -0.72092712 4289633181
5.0007548 1.092428 -0.72372562 4281216296
5.0441303 1.0695279 -0.72932273 4283325265
5.8750267 1.2082807 -0.85466784 4284375384
5.8736005 1.1704679 -0.85334218 4284701778
5.8923254 1.1366565 -0.85510969 4285226320
5.850575 1.0914018 -0.84774512 4285551938
5.8707886 1.0579413 -0.8498072 4287192388
5.9239426 1.0300411 -0.85687721 4290742637
5.9360037 0.99465501 -0.85776097 4290149979
5.9849586 0.96515059 -0.86424178 4289558616
6.0122709 0.93174601 -0.86748219 4290223253
5.6989465 0.84735155 -0.81946516 4283913542
5.6501832 0.80468625 -0.81136411 4282928454
5.9950824 0.81637788 -0.86247426 4279642152
6.0450964 0.78544843 -0.8692497 4289117888
6.0458755 0.74785519 -0.86866051 4292999659
5.8558521 0.68785834 -0.83949679 4284579432
5.6702418 0.63077021 -0.81106955 4282671956
5.994679 0.62971479 -0.85908657 4282538839
6.0653605 0.59954923 -0.86910242 4285172862
6.0590768 0.56140715 -0.86762947 4291029466
6.0633922 0.52430421 -0.86777675 4288661690
6.062552 0.4867726 -0.86718762 4288594876
6.0466838 0.44817159 -0.86438906 4288398013
6.0394521 0.41038898 -0.86291617 4291751912
6.0497541 0.37381339 -0.8640945 4283713083
6.0539083 0.33679605 -0.86438906 4287197012
6.0440063 0.29905477 -0.86262155 4287326544
1.801591 0.077240579 -0.2300044 4284313706
1.8237759 0.066997558 -0.23324481 4288582268
1.8073465 0.055280864 -0.23074085 4290290566
1.769089 0.04322245 -0.22499648 4291672730
1.6892188 0.030848339 -0.21306586 4282133281
1.7160795 0.020825189 -0.21704274 4283514936
1.6795795 0.01005062 -0.21159297 4284238147
1.6805985 -0.00025473454 -0.21174026 4285159762
1.6736418 -0.010527982 -0.21070921 4284700237
1.6686006 -0.020739065 -0.20997275 4285357908
1.6565747 -0.030765016 -0.20820525 4284436806
1.6563547 -0.040928986 -0.20820525 4283777085
5.6648507 -0.20672713 -0.80561972 4290362537
5.8077536 -0.24760401 -0.8271243 4294505687
5.8397145 -0.28486684 -0.83213222 4290884243
5.788476 -0.31799057 -0.82476765 4291741872
5.7587724 -0.35181886 -0.82064348 4294702557
5.7851243 -0.38906631 -0.82491493 4291874747
5.8063035 -0.42628923 -0.8284499 4291478708
5.7986488 -0.46151662 -0.82771349 4294371533
5.7957077 -0.49708778 -0.82771349 4292266674
5.7955036 -0.53291136 -0.82815534 4291742903
5.7822804 -0.56749767 -0.82668245 4291744443
5.7688518 -0.60194188 -0.8252095 4294440674
5.7650495 -0.63732761 -0.8252095 4282661159
4.7412562 -0.55382359 -0.6723209 4284898636
4.7210793 -0.58085579 -0.66981691 4286277971
4.7007499 -0.60766131 -0.66731298 4286409816
4.673409 -0.63331133 -0.66377795 4285227082
4.6185102 -0.65476811 -0.65611881 4284435769
4.5977712 -0.68063635 -0.65361488 4285355840
4.5788445 -0.70657599 -0.65140551 4284436026
4.5597739 -0.73230904 -0.64919609 4284371262
4.5493412 -0.75929803 -0.64831239 4284042810
4.515358 -0.78214097 -0.6438936 4281738262
4.7081089 -0.84526414 -0.67379379 4294638318
5.7375541 -1.0662025 -0.83051199 4290354049
5.7503304 -1.1051171 -0.83345783 4290352758
5.7317991 -1.1380703 -0.83169031 4291867037
5.7305222 -1.1744089 -0.83257407 4284434486
5.7706285 -1.2195606 -0.83979136 4289765010
5.7127795 -1.244012 -0.83213222 4283711545
5.7137256 -1.2809873 -0.83345783 4287524447
5.7269621 -1.3209082 -0.83669823 4287328862
5.7168245 -1.3555673 -0.83640367 4287856235
5.7064776 -1.3901517 -0.8361091 4287395432
5.7093549 -1.4280175 -0.83787656 4287727737
5.694737 -1.4615483 -0.83699286 4284048216
3.7652397 1.1171279 -0.59456962 4287400061
3.7615931 1.0909798 -0.5928185 4286278243
4.0398793 1.1448362 -0.63834739 4293057742
4.3018303 1.1905773 -0.68101084 4282993461
4.0402803 1.0915709 -0.63611871 4289111716
4.1452322 1.0926696 -0.65251547 4279640349
4.8155198 1.1125091 -0.758219 4280557337
5.0341759 1.1305145 -0.7932412 4285556578
5.0178671 1.0945561 -0.7894206 4284833106
5.5904803 1.183529 -0.88270712 4285158473
5.6411557 1.1581357 -0.88987076 4285090886
5.6878562 1.1313944 -0.89639765 4285156679
5.7034159 1.0981525 -0.89783037 4282788642
5.6867523 1.0588009 -0.89400977 4284300590
5.6970296 1.0245863 -0.89464653 4287915589
5.7109904 0.99096054 -0.89592004 4291859821
5.7130685 0.95524895 -0.89528328 4291860597
5.6964035 0.9165706 -0.89162189 4289105273
5.6775284 0.87783122 -0.88764209 4291740338
3.480639 0.51646441 -0.52866411 4281217058
5.642911 0.80170834 -0.88031924 4285355325
5.6858768 0.77224815 -0.88652772 4290743660
5.696382 0.73810649 -0.88748288 4291596396
5.6949253 0.70241553 -0.88652772 4287133005
5.6324506 0.6596545 -0.87570268 4285033797
5.6393361 0.62540823 -0.87618023 4287001943
5.6833248 0.59500605 -0.88270712 4290746237
5.691781 0.56060618 -0.88350308 4290809449
5.6951137 0.52567154 -0.88350308 4291334764
5.65692 0.48716217 -0.87681705 4291203182
5.6538978 0.4519712 -0.87586188 4291007090
5.6624722 0.41770643 -0.87681705 4291072885
5.7131944 0.38621372 -0.88461745 4291008119
5.7095442 0.35078812 -0.88366228 4281603328
5.7037029 0.31531301 -0.88238877 4284763451
5.7025719 0.28016466 -0.88191116 4284102950
5.7170057 0.2457193 -0.88398069 4283446053
1.8273306 0.067574002 -0.25612739 4287528551
1.7961335 0.055393428 -0.25103325 4290290050
1.8448002 0.045555539 -0.25883365 4291342474
1.6851379 0.0313018 -0.23304455 4281474065
1.6833239 0.020937301 -0.23272617 4283119155
1.67651 0.010566274 -0.23161183 4283514937
1.6824669 0.00027881563 -0.232567 4284633932
1.6814497 -0.010038489 -0.23240779 4284436808
1.6734589 -0.020258043 -0.23113425 4284700491
1.6663938 -0.030398158 -0.23001991 4283056180
1.6740713 -0.040816728 -0.23129345 4283514937
5.6572394 -0.20835005 -0.87411076 4289625177
5.6667042 -0.2435253 -0.87586188 4291467892
5.6680613 -0.27843648 -0.87633944 4294958530
5.6425881 -0.31190044 -0.87251884 4287922028
5.6366267 -0.34627447 -0.87188208 4288444253
5.6284862 -0.38045374 -0.87092692 4291795066
5.6486912 -0.4166542 -0.87458831 4291925887
5.6666937 -0.45295942 -0.87793136 4292057724
5.6628246 -0.4876363 -0.87777215 4291597425
5.6469464 -0.52119315 -0.87570268 4291071594
5.6259575 -0.55408937 -0.87283725 4290480484
5.5851398 -0.58469057 -0.86678791 4287718469
4.810204 -0.533369 -0.74166304 4289629048
4.7774253 -0.55942678 -0.73688728 4286869858
4.6994362 -0.57954055 -0.72478867 4286147673
4.7055826 -0.6096341 -0.72638059 4286014282
4.680232 -0.63557112 -0.72287834 4285489219
4.6469207 -0.66010863 -0.71810257 4285882186
4.6183696 -0.68498617 -0.71412283 4285422145
4.5896888 -0.70953816 -0.71014303 4284766531
4.559906 -0.73360729 -0.70600402 4284635719
4.5407133 -0.75912952 -0.70361614 4285160262
4.5262427 -0.7852881 -0.70202422 4289500031
4.7487049 -0.85395145 -0.73927516 4294962638
5.6197882 -1.0463074 -0.88302553 4289627230
5.6142316 -1.0809568 -0.88318473 4291859567
5.6065254 -1.1151921 -0.88302553 4292121202
5.599577 -1.1495721 -0.88302553 4291137125
5.5982132 -1.185136 -0.88398069 4288838761
5.3381224 -1.1643243 -0.84227234 4282724648
5.5697622 -1.2507162 -0.88175195 4290876786
5.5706406 -1.2868687 -0.88318473 4287192388
5.5626397 -1.3210253 -0.88318473 4287523418
5.5525107 -1.354664 -0.88286632 4287130968
5.5134501 -1.3810297 -0.87777215 4287922280
5.5077405 -1.4155712 -0.87824976 4285622874
5.5275898 -1.4568896 -0.88302553 4285361515
4.0707688 -1.1803849 -0.64471507 4285890422
4.0331626 -1.1963536 -0.63962096 4284508769
3.9869304 -1.2629328 -0.63564116 4284444778
3.6555877 1.1091697 -0.62368804 4287334521
3.668936 1.0886827 -0.62488431 4283715928
4.1085601 1.1646103 -0.70178813 4290953647
4.1156287 1.1393787 -0.70178813 4284175689
4.1234932 1.1143615 -0.70195907 4286018938
4.0950046 1.0797349 -0.69563586 4283457370
4.6520901 1.1356235 -0.79168022 4285033316
4.6647215 1.1084255 -0.7927056 4285423448
5.0170074 1.1597487 -0.85422862 4282594084
5.0365257 1.131754 -0.85645032 4289175442
5.0703273 1.1067187 -0.86123544 4284830535
5.5656943 1.1792289 -0.94788039 4290156668
5.6181841 1.1543859 -0.95591259 4288313706
5.6232285 1.1195064 -0.95557082 4284495926
5.62322 1.0836753 -0.95437449 4287390043
5.6239519 1.0480672 -0.95334911 4292849042
5.6225195 1.0121416 -0.95198196 4292255355
5.6198878 0.97610408 -0.95044386 4293046160
5.6179976 0.94029993 -0.94907671 4289431155
5.6207428 0.90534025 -0.94856399 4293052843
3.4500549 0.53355008 -0.56660831 4289963919
5.6099892 0.83310837 -0.94480425 4287782708
5.6149955 0.79867047 -0.94480425 4293638281
5.6061225 0.76234096 -0.94241172 4294164878
5.6136255 0.72830904 -0.94292438 4294295951
5.5994101 0.69155222 -0.93967736 4292387194
5.6015906 0.6569519 -0.93933553 4292189564
5.6015992 0.62213302 -0.93865198 4291926662
5.5935526 0.58651507 -0.93660116 4290611055
5.5941043 0.55189186 -0.9360885 4288308288
5.6052341 0.51828408 -0.93745565 4286137378
5.618125 0.48473021 -0.93916464 4283440392
5.6092076 0.44930241 -0.93711388 4286993983
5.6010509 0.4140752 -0.93523401 4287456841
5.6093836 0.38010091 -0.93625939 4286864201
5.6027598 0.34512818 -0.93472129 4286796615
5.5998535 0.31047001 -0.9338668 4287195221
5.6124778 0.27663997 -0.93574667 4281474055
1.8272201 0.078039303 -0.27830437 4286863185
1.8010799 0.06583719 -0.27369013 4286077769
1.80145 0.054784734 -0.27369013 4286997579
1.7820526 0.043239299 -0.2702722 4287985242
1.7281029 0.031286448 -0.26087284 4281013252
1.7075731 0.020420833 -0.25728399 4282660655
1.710622 0.0099622104 -0.25779667 4283515451
1.6958716 -0.00053963868 -0.25523323 4284501832
1.6958364 -0.010945302 -0.25523323 4284830283
1.6878556 -0.021256747 -0.25386605 4284897357
1.6926191 -0.031701688 -0.25472051 4284042561
1.6983026 -0.042229693 -0.25574592 4283186999
5.5859785 -0.20483863 -0.93061978 4293705393
5.5806785 -0.23894194 -0.92993617 4290544254
5.5899329 -0.27370763 -0.93181604 4294960859
5.5950346 -0.3083798 -0.93301237 4287462006
5.5782857 -0.34180367 -0.93044889 4294634980
5.5760837 -0.37602496 -0.93044889 4290417524
5.6002026 -0.41217926 -0.93506312 4290743140
5.6240873 -0.44864362 -0.93967736 4290479710
5.6398807 -0.48474318 -0.94292438 4290677087
5.6220827 -0.51798677 -0.9403609 4290808675
5.6482158 -0.55535984 -0.94548786 4290481266
5.6554818 -0.59113073 -0.94736773 4286535236
4.8927703 -0.54193687 -0.81492221 4288247141
4.8580365 -0.56829238 -0.80945355 4283448884
4.8094735 -0.59255862 -0.80159223 4280161548
4.7774096 -0.6183967 -0.79663622 4285885014
4.6485491 -0.63077217 -0.77476132 4286278992
4.6406894 -0.65873039 -0.77407777 4285817930
4.618041 -0.68445265 -0.77083069 4285424455
4.5972004 -0.7102223 -0.76792544 4285160262
4.5732989 -0.73529363 -0.76450747 4285029707
4.6182661 -0.77160954 -0.77322328 4282396182
4.6066489 -0.79875553 -0.77202702 4286670670
4.6229963 -0.83083528 -0.77578676 4294961628
5.6717682 -1.0550126 -0.96172309 4284629822
5.6574469 -1.0883065 -0.96035594 4283049494
5.6767564 -1.1281799 -0.96497011 4281864448
5.619535 -1.1527056 -0.95608348 4282715136
5.6191044 -1.1885906 -0.95727974 4283043328
5.6107426 -1.2228367 -0.95710886 4283047695
4.9858966 -1.118876 -0.84739274 4283117605
5.5789924 -1.2878331 -0.95420361 4286207809
5.5096283 -1.3074936 -0.94326621 4287520060
5.4651246 -1.3324144 -0.93677211 4287980362
5.355526 -1.3405832 -0.91865695 4286865733
5.3653321 -1.3780723 -0.92190403 4287066193
5.3443885 -1.4077075 -0.91968232 4286672731
4.0457044 -1.0925174 -0.68794549 4288387231
4.051271 -1.1207327 -0.69016713 4290757052
4.0443182 -1.1455697 -0.69016713 4293189069
4.025856 -1.1670747 -0.68811637 4290488721
4.0497942 -1.2009907 -0.69375598 4283777071
4.0442348 -1.2263885 -0.69409776 4284964952
4.028163 -1.2485574 -0.69255972 4284706406
3.6119423 1.1450967 -0.6665684 4285886054
3.5747693 1.1092241 -0.65796298 4285687386
3.6219594 1.0995444 -0.66583598 4284638823
3.9594438 1.1754754 -0.73010182 4284642681
4.12709 1.1977241 -0.76122773 4289506985
4.1239572 1.1694289 -0.75921369 4289965987
4.1320024 1.1443652 -0.75939679 4288519569
4.1550803 1.1233504 -0.76250935 4285231723
4.1628456 1.0980848 -0.76269245 4282997850
4.5383778 1.1377288 -0.832268 4285031766
5.353251 1.3070807 -0.98716515 4286276427
5.2559581 1.249211 -0.96702486 4284894008
5.0748291 1.1733249 -0.93095541 4288579958
5.1260557 1.1520774 -0.93937773 4287986027
5.0609913 1.1048819 -0.92564571 4287455305
5.512969 1.1681275 -1.0104181 4286664744
5.5566263 1.1417954 -1.0173756 4284099353
5.5538859 1.1057601 -1.0155447 4283179809
5.5605659 1.0716614 -1.0155447 4288772984
5.574769 1.0389626 -1.0170094 4291863967
5.6806965 1.022671 -1.035868 4281472030
5.7042999 0.99082279 -1.0391637 4280950054
5.7112412 0.95596546 -1.0393468 4291482075
5.7179704 0.92106026 -1.0395299 4279051057
5.7050548 0.883102 -1.0360512 4280236360
5.7006421 0.84663624 -1.0342202 4280696659
5.7096229 0.81219536 -1.0349525 4280631126
5.7028089 0.77555758 -1.0327555 4280173398
5.7074604 0.74055117 -1.0327555 4279844433
5.6953101 0.70346934 -1.0296428 4279119431
5.7014718 0.66873926 -1.030009 4278854202
5.7044916 0.63363457 -1.0298259 4283855749
5.7033825 0.59810823 -1.0289105 4280104772
5.6991181 0.56232995 -1.0274458 4279515208
5.6985459 0.52698839 -1.0267134 4279710539
5.6957955 0.49150613 -1.0256149 4285292664
5.6918445 0.45599902 -1.0243331 4285358160
5.6974764 0.42128322 -1.0248824 4288115034
5.6970115 0.38611698 -1.0243331 4287597426
5.6541371 0.3483755 -1.0159109 4287531381
1.8475949 0.10272308 -0.30550802 4284432948
1.8481904 0.0913845 -0.30550802 4284171565
1.8310369 0.079280756 -0.30221233 4285484858
1.8010339 0.06691917 -0.29653642 4287130718
1.7906016 0.055534076 -0.2945224 4288777855
1.7663386 0.043940265 -0.28994507 4290948254
1.7321725 0.032464292 -0.28353679 4286803296
1.7136619 0.021604015 -0.280058 4283185459
1.6980329 0.010990546 -0.27712852 4283580216
1.6882373 0.00057033316 -0.27529758 4284764231
1.6921414 -0.0098122079 -0.27602994 4284830024
1.682219 -0.020075239 -0.27419901 4284895815
1.6879618 -0.030504692 -0.27529758 4284304193
1.6906912 -0.040933315 -0.27584687 4283383091
5.7072315 -0.20919995 -1.0245162 4282141512
5.6852145 -0.2433307 -1.0206712 4288191394
5.6561203 -0.27686229 -1.0155447 4294505968
5.6670761 -0.31226638 -1.0179249 4294638071
5.6660342 -0.34709322 -1.018108 4293650408
5.6481047 -0.38079366 -1.0151784 4294573050
5.6672306 -0.41703129 -1.0192065 4294507003
5.6586862 -0.45132759 -1.018108 4294638843
5.6607075 -0.48646128 -1.0190234 4294836222
5.6585951 -0.52127588 -1.0192065 4294309624
5.660182 -0.55646777 -1.0201221 4294440951
5.6635051 -0.59190333 -1.0214037 4294310903
5.6617212 -0.62685925 -1.0217699 4288198578
5.682179 -0.66444337 -1.0263472 4285440418
5.6887279 -0.70061857 -1.0283612 4294047220
4.747386 -0.61421376 -0.85240829 4285752917
4.7143025 -0.63936561 -0.84691548 4286801225
4.6849847 -0.66468745 -0.84215504 4281931785
4.68957 -0.69471884 -0.84380287 4283248684
4.6832762 -0.72318012 -0.84343672 4280884233
4.6544847 -0.74800092 -0.83885938 4287857765
4.6362319 -0.77427793 -0.83629608 4286738006
4.537436 -0.78641808 -0.81853598 4284962372
4.5286546 -0.8135488 -0.81780362 4287199859
4.511013 -0.83898288 -0.81542337 4288317825
4.4855075 -0.86274499 -0.81157845 4288776054
4.5080914 -0.89581025 -0.81688815 4287394653
4.4822865 -0.91930485 -0.81304318 4286999122
4.4650197 -0.94434834 -0.81084603 4289168748
5.4561763 -1.1890877 -1.0008972 4285351981
5.4487777 -1.2225438 -1.0008972 4289101159
5.4335108 -1.2541845 -0.99943238 4285551425
4.9924102 -1.1846477 -0.91649103 4284301871
4.9344268 -1.2029138 -0.90678704 4282657559
4.9393506 -1.2362722 -0.90916729 4280355584
5.1944728 -1.3340701 -0.95970106 4282067490
5.2517848 -1.3831991 -0.97233456 4283251764
5.2735701 -1.4235984 -0.97819358 4283845948
4.068027 -1.1248963 -0.74694639 4285556817
4.0487518 -1.1463532 -0.7445662 4284565809
4.0312552 -1.1681637 -0.74255216 4283053348
4.0805631 -1.2096467 -0.75353777 4284111188
3.3791201 1.0948137 -0.66530693 4286281579
3.3633373 1.0669335 -0.66063708 4285753695
4.0960021 1.217098 -0.80832088 4293453543
4.1231723 1.1976939 -0.81240696 4282399803
4.1049681 1.1651336 -0.8071534 4287264624
4.1432304 1.1485797 -0.81357443 4290091930
4.1644015 1.1269832 -0.81649309 4289370011
4.1589098 1.0981508 -0.81396359 4285885802
4.1798172 1.0762844 -0.81688225 4282594862
5.3050942 1.331706 -1.0457045 4288117340
5.1245174 1.2529601 -1.0071783 4288246607
5.283824 1.2576383 -1.038116 4288116057
5.0535073 1.1700478 -0.98966634 4283907626
5.1821175 1.1663995 -1.0143776 4290157701
5.2533765 1.1486324 -1.0274143 4288574291
5.3725839 1.1402262 -1.0501797 4283968278
5.3881254 1.1090208 -1.0519309 4284166951
5.3890572 1.0747868 -1.0507635 4283511076
5.5091915 1.0636654 -1.0737236 4290490538
5.6197467 1.0493071 -1.0947379 4283986034
5.6588988 1.020732 -1.1013534 4283529080
5.6660218 0.98615879 -1.1015481 4292673535
5.6680965 0.95072442 -1.1007698 4286361263
5.7144928 0.9225015 -1.1089419 4285579204
5.709384 0.88576436 -1.1068016 4285512902
5.7088904 0.84984773 -1.1056341 4285841867
5.710113 0.81424797 -1.1048559 4285578701
5.7120862 0.77879798 -1.1042721 4285578444
5.7138395 0.74335438 -1.1036884 4285710540
5.7163463 0.70803934 -1.1032993 4285446077
5.7166862 0.67249197 -1.1025209 4286891716
5.720705 0.63740242 -1.1025209 4286102980
5.7245083 0.60228884 -1.1025209 4285775051
5.6812434 0.56250393 -1.0931813 4285775571
5.7060747 0.52963269 -1.0974619 4284588201
5.7101946 0.49469581 -1.0976565 4294508286
5.6925902 0.45799327 -1.0935704 4294112495
5.690402 0.42269123 -1.0925975 4291017636
5.6928897 0.38776761 -1.0925975 4291081381
5.6736231 0.35149065 -1.0883168 4286739561
1.8424861 0.1020064 -0.32674342 4284433708
1.8323013 0.090162009 -0.32460308 4283185702
1.8210604 0.078403644 -0.32226816 4284828474
1.790141 0.066050448 -0.31604168 4287064664
1.7669827 0.054326043 -0.31137186 4288578927
1.7594383 0.043284789 -0.30981523 4292065445
1.7322109 0.031962961 -0.3043671 4288051571
1.6960847 0.020862214 -0.29716775 4283315764
1.6883339 0.010401044 -0.29561114 4283711543
1.6834615 3.7895283e-05 -0.29463825 4284830276
1.6834298 -0.01029163 -0.29463825 4284896069
1.668623 -0.020450806 -0.29171959 4285290827
1.6782733 -0.030862389 -0.29366535 4283777845
1.6711881 -0.040995933 -0.29230332 4283712567
5.7170243 -0.20762391 -1.0955162 4288980658
5.6980028 -0.2419536 -1.0920137 4294179070
5.6591806 -0.2751092 -1.0846199 4292467422
5.6475916 -0.30929375 -1.0826741 4294638069
5.6671276 -0.34524867 -1.0869548 4292859607
5.5787768 -0.37425536 -1.069832 4294966525
5.6869211 -0.41655341 -1.0918192 4294901502
5.6842585 -0.45143983 -1.0918192 4294967295
5.6833358 -0.48647621 -1.0922084 4294901502
5.6753592 -0.52089208 -1.0912355 4294966782
5.675962 -0.55608743 -1.0920137 4294310644
5.6763449 -0.59130973 -1.092792 4291807940
5.6716356 -0.62602061 -1.0925975 4288131494
5.7027626 -0.66489142 -1.0996022 4289908431
5.6839714 -0.69807988 -1.0966836 4278915092
4.7115993 -0.60822785 -0.90307975 4294964211
4.6931973 -0.63515657 -0.90016109 4281215267
5.7206631 -0.80972296 -1.1068016 4288394173
5.7000613 -0.84251744 -1.1036884 4282010963
5.6986623 -0.87807328 -1.1044667 4281678647
4.7314038 -0.75898421 -0.91125196 4281935381
4.6966629 -0.78300834 -0.90522009 4283121195
4.5032897 -0.77924705 -0.86727762 4289439895
4.4511127 -0.79839063 -0.85774338 4286740062
4.4769926 -0.83141029 -0.8639698 4283642136
4.5026331 -0.86477721 -0.87019628 4283114768
4.478961 -0.88876587 -0.8664993 4286210121
4.4551644 -0.91249675 -0.86280233 4285620554
4.4293265 -0.93556422 -0.85871625 4286278994
4.4139175 -0.96064103 -0.85677046 4286937174
4.3954959 -0.98492128 -0.85424095 4286543699
4.3654737 -1.0063705 -0.84937656 4285751362
4.3038549 -1.0200324 -0.83809108 4285487679
4.2994213 -1.0468847 -0.83848023 4285619525
4.271028 -1.0677798 -0.834005 4284567612
4.2491932 -1.0900705 -0.83089179 4284041779
4.2101698 -1.107646 -0.82427615 4284237358
4.1767745 -1.1263146 -0.81882799 4283451453
4.1518192 -1.1469638 -0.81513107 4280885786
4.129601 -1.1681497 -0.8120178 4283841320
4.1251826 -1.194284 -0.81260157 4284963150
3.2741842 1.0824473 -0.68782347 4287267705
3.309623 1.0716779 -0.69422108 4284110670
4.0590897 1.205048 -0.85354257 4288389283
4.0927196 1.1877527 -0.85932106 4293980398
4.1008716 1.1628848 -0.85952741 4294965743
4.1522508 1.149971 -0.86922705 4292399301
4.1677303 1.1267691 -0.87108445 4285033052
4.1944342 1.1064143 -0.87541831 4284507473
5.2587171 1.3525952 -1.1057328 4287330659
5.1387858 1.2881927 -1.0778722 4287787863
5.2254901 1.2758956 -1.0950012 4288511069
5.2141809 1.2392846 -1.0908737 4291143557
5.0681992 1.1717926 -1.0576473 4286208061
5.2146764 1.1719881 -1.0877781 4289498229
5.231329 1.1420556 -1.0898418 4283313949
5.2411098 1.1105435 -1.090461 4283512105
5.2756205 1.0840734 -1.0964459 4282921776
5.4856191 1.0921735 -1.1401974 4282007363
5.5191202 1.0636765 -1.1459759 4279973449
5.556324 1.0355264 -1.1525799 4289055452
5.5779815 1.0041867 -1.1558819 4292410108
5.6158519 0.97546571 -1.1626923 4286756278
5.6217313 0.94098908 -1.1626923 4286629833
5.6602445 0.91176558 -1.169709 4286630865
5.6802373 0.87926203 -1.1728046 4286761689
5.6942353 0.8456853 -1.174662 4285711568
5.7206297 0.8137604 -1.1792023 4285645777
5.7264848 0.77877575 -1.1794087 4286039254
5.7398887 0.74475652 -1.181266 4285185224
5.7404656 0.70904374 -1.1804405 4284063908
5.7408214 0.67335188 -1.179615 4285840070
5.7438722 0.63800621 -1.1794087 4285644748
5.7360005 0.60152662 -1.1769321 4285973461
5.7356887 0.56593579 -1.1761067 4286105045
5.7458735 0.53136188 -1.1775513 4283799196
5.7314787 0.49458286 -1.1738365 4291019705
5.7012434 0.45675138 -1.1668198 4288840301
1.8553283 0.13744795 -0.35287684 4287982672
1.8424695 0.12513591 -0.3499876 4286603337
1.8539454 0.11448956 -0.35225773 4283777855
1.853636 0.1030577 -0.35205135 4285224264
1.8591201 0.091922641 -0.35308322 4286734921
1.8440081 0.079839632 -0.34978122 4288117087
1.8385963 0.068306789 -0.34854296 4281936156
1.8203987 0.056451786 -0.34462184 4281014028
1.7894092 0.044509135 -0.33801785 4281605136
1.7368201 0.032550361 -0.3268736 4283315762
1.7027433 0.021468826 -0.31965047 4283382325
1.7077352 0.011051138 -0.32068235 4283580470
1.7019 0.0005718235 -0.31944409 4284172092
1.6960007 -0.0098354677 -0.31820586 4284830276
1.6900381 -0.020170342 -0.31696761 4284369724
1.6898825 -0.030539842 -0.31696761 4284238136
1.6857506 -0.040812563 -0.31614211 4283645234
5.7313166 -0.21008442 -1.1701218 4281808946
5.7269874 -0.24512145 -1.1695026 4294506742
5.6804194 -0.27805334 -1.1600094 4293256677
5.7059622 -0.31441173 -1.1657879 4294900989
5.6130981 -0.34384677 -1.146595 4289307809
5.6479802 -0.38078529 -1.1544373 4294966521
5.6650538 -0.41687095 -1.1585648 4294901500
5.6906753 -0.45388114 -1.1645496 4294901502
5.6907077 -0.48904151 -1.1651688 4294835709
5.6846766 -0.52368033 -1.1645496 4292795864
5.684278 -0.55883837 -1.1651688 4287862662
5.6749029 -0.5930953 -1.1639305 4288651919
5.7081132 -0.63199896 -1.1717727 4279508252
5.7216206 -0.66905814 -1.1754875 4278989636
5.7183785 -0.70427239 -1.1756939 4288204251
5.7197723 -0.74010015 -1.1769321 4286956231
5.7199707 -0.77584004 -1.177964 4288851375
4.7095304 -0.66817194 -0.96374679 4294572537
5.7226024 -0.84783947 -1.1806469 4282209885
5.7221274 -0.8836838 -1.1816788 4282208591
5.6924458 -0.91489416 -1.1765194 4282269485
4.7727818 -0.79709399 -0.98108232 4283122991
4.7716575 -0.82703292 -0.98190784 4282859306
4.7751603 -0.85785353 -0.98376513 4283057208
5.6230664 -1.0459055 -1.1668198 4283721579
5.6088562 -1.0789092 -1.1651688 4281876796
4.7748756 -0.94884664 -0.98727357 4294832085
4.7708807 -0.97852021 -0.98768628 4290618765
4.7896762 -1.0130415 -0.99305201 4282326794
4.9583216 -1.080552 -1.0308187 4286604877
4.9783301 -1.1169553 -1.0365971 4286078541
5.0247731 -1.1598083 -1.0481541 4286868309
5.0185137 -1.1908437 -1.0483606 4285681982
4.3057556 -1.0496058 -0.89523029 4286074683
4.2641144 -1.0672127 -0.8875944 4286404929
4.2499046 -1.0914091 -0.88594341 4285814330
4.2298813 -1.1139754 -0.8830542 4286010684
4.2116303 -1.1368476 -0.88057768 4284827439
4.1725116 -1.1537988 -0.87356091 4286341195
4.1578221 -1.177246 -0.87190992 4286473293
4.8187075 -1.3964274 -1.0186425 4286211928
5.0877252 -1.5083102 -1.0797296 4283849556
3.1621909 1.0662842 -0.7056241 4286674019
3.217783 1.0631049 -0.71717662 4283913285
4.1010566 1.1897166 -0.91400617 4293256418
4.1082792 1.1645306 -0.91400617 4294177771
4.1247525 1.1419072 -0.91618592 4292466634
4.1571178 1.1234583 -0.92207116 4294572262
4.1922417 1.1054022 -0.92861038 4285291335
5.0656424 1.3027576 -1.1284915 4288445015
5.0801668 1.2733133 -1.1300173 4291405448
5.0802994 1.2402645 -1.1282735 4284759593
5.0773697 1.2065847 -1.1258758 4291009926
5.0713668 1.1723274 -1.1228242 4283379229
5.1032205 1.1467569 -1.1284915 4289234814
5.1244626 1.1185477 -1.1317611 4282788129
5.1560516 1.0923481 -1.1374284 4282333497
5.3853922 1.1065038 -1.1882161 4280761409
5.4169655 1.0783985 -1.1938834 4279646540
5.4426465 1.0488379 -1.1982428 4286621876
5.4614515 1.0177495 -1.2010765 4293393404
5.508894 0.99166316 -1.2104493 4286817702
5.5437207 0.9628588 -1.2169886 4286627782
5.5812879 0.93414807 -1.2241817 4286431945
5.6004043 0.90205991 -1.2272333 4286498765
5.6270509 0.8709681 -1.2320286 4286760657
5.6544924 0.83972657 -1.2370421 4286500054
5.6798286 0.80790585 -1.2416195 4286631642
5.6962833 0.77462035 -1.2442352 4287945960
5.715446 0.74154043 -1.2475047 4289983477
5.7334485 0.70813477 -1.2505563 4285968821
5.7531939 0.67476374 -1.2540439 4286235345
5.7455864 0.63815492 -1.2514282 4285974225
5.7639532 0.6044184 -1.2546978 4285646288
5.7646394 0.56875193 -1.2540439 4285315783
5.7505283 0.53174901 -1.2501204 4283731859
5.7468767 0.49586576 -1.2485946 4287667356
5.6904688 0.45582852 -1.2352983 4289963426
1.8555011 0.1363901 -0.37583107 4288322428
5.7219243 0.38775033 -1.2411835 4284239437
5.7212734 0.35245332 -1.2405295 4289442221
1.8469783 0.10161676 -0.37343338 4286867538
1.8631632 0.091054 -0.37692094 4287391048
1.868562 0.079831466 -0.37801081 4287588941
1.7997719 0.065788522 -0.36253473 4288118104
1.8391609 0.055956051 -0.37125364 4290554502
1.799468 0.043673288 -0.36231676 4290356357
1.7021238 0.030798532 -0.34051946 4285949008
1.7071601 0.020415612 -0.34160933 4283580721
1.6945661 0.0098577356 -0.33877566 4283909173
1.7053303 -0.00053613068 -0.34117338 4284896068
1.7052948 -0.01099983 -0.34117338 4284764482
1.7071469 -0.021486346 -0.34160933 4284303931
1.7060072 -0.031943195 -0.34139135 4283777587
1.7087061 -0.042481221 -0.34204528 4283317557
1.7249969 -0.053467628 -0.34575081 4282464046
5.7399745 -0.21045344 -1.2431452 4285955182
5.691771 -0.24367517 -1.2326826 4282398252
5.7086902 -0.27949765 -1.236824 4293256669
5.7049193 -0.31441325 -1.2363881 4294176237
5.6785288 -0.34792492 -1.2309388 4294441460
5.6714182 -0.38243386 -1.2298489 4293191136
5.663125 -0.41679722 -1.2285411 4294376437
5.6945119 -0.45424685 -1.2361702 4294376446
5.6984239 -0.48976278 -1.2376959 4294705149
5.6982274 -0.52498645 -1.2383499 4294047471
5.6958704 -0.56003553 -1.2385678 4287731857
5.6971798 -0.59548044 -1.2396576 4287731846
5.7118497 -0.63246357 -1.2437992 4278194203
5.7330651 -0.67044109 -1.2494664 4280633446
5.7394986 -0.70691609 -1.2518642 4280962664
5.7447319 -0.74337018 -1.2540439 4287540658
4.7274833 -0.64146286 -1.0258262 4293982969
5.7351775 -0.81381088 -1.2540439 4280825658
5.7117324 -0.84627199 -1.2499024 4278200377
5.6823182 -0.87758338 -1.2444531 4290105034
5.651773 -0.90841126 -1.2387857 4281808934
4.8008838 -0.80207407 -1.0474056 4282596136
4.8016424 -0.83251566 -1.0487134 4283120428
4.7897196 -0.8607555 -1.0471876 4279311133
5.5682864 -1.0357856 -1.2252715 4286823871
5.5455327 -1.0668015 -1.221566 4286296751
5.5082498 -1.0947268 -1.2145908 4288329910
5.4364147 -1.115182 -1.1997687 4279771406
5.4342442 -1.1495271 -1.2008585 4282596647
4.7471628 -1.0348076 -1.0454439 4292461743
4.7492952 -1.0658374 -1.0474056 4294765531
4.7626371 -1.0995641 -1.051983 4288714378
5.2809448 -1.2532743 -1.1725221 4279569666
5.1707468 -1.260709 -1.148981 4281935904
4.9328432 -1.2348733 -1.0960135 4284039990
4.9223371 -1.2643898 -1.0953597 4282065697
4.7814078 -1.259546 -1.0646255 4286273092
4.7660513 -1.2868272 -1.0628817 4286730036
4.8474321 -1.3407421 -1.0835891 4283575319
4.9057889 -1.3893262 -1.0990652 4286209866
4.9365444 -1.4308034 -1.10822 4286536774
4.9360943 -1.4635615 -1.1101818 4287391573
4.9326248 -1.4955189 -1.1114897 4285685585
4.5774689 -1.5115392 -1.0369428 4282666827
4.5197787 -1.6479 -1.0347632 4283388741
4.5315404 -1.6837547 -1.0399945 4289703578
4.5138216 -1.7087655 -1.0382507 4284968804
3.0980804 1.066596 -0.73282403 4287330409
3.1082559 1.0488107 -0.73374224 4282335288
4.0628991 1.2061787 -0.95960975 4293058269
4.0664849 1.1801418 -0.95869154 4290687640
4.04743 1.1477355 -0.95226443 4289372815
4.1331892 1.1446936 -0.97154576 4283845445
4.1720815 1.1279451 -0.97935015 4292000438
4.1836295 1.1035653 -0.9804979 4287655008
4.9576273 1.2751746 -1.1673435 4287851862
4.9747996 1.2470971 -1.1696389 4282260232
4.9577737 1.2105482 -1.1636709 4281601537
4.9527979 1.1771802 -1.1606869 4281996297
4.9741521 1.150056 -1.16413 4286075722
4.9896617 1.1214336 -1.1661958 4282658353
5.1913867 1.1333388 -1.2132515 4281414199
5.2848911 1.1198173 -1.2341397 4280104004
5.3069172 1.090502 -1.2378123 4279778639
5.345964 1.0643783 -1.2456167 4287803578
5.3820219 1.0372639 -1.2527324 4292405994
5.3892417 1.0043992 -1.252962 4288332731
5.4527779 0.98165554 -1.2667344 4287876044
5.4692473 0.9500109 -1.2692593 4287810768
5.4980125 0.9202891 -1.2747682 4287350474
5.5266175 0.89024991 -1.2802773 4287087817
5.5656409 0.86153132 -1.2883111 4287023567
5.5910401 0.83036625 -1.2931315 4286893007
5.6133747 0.79851073 -1.2972633 4286959827
5.6355286 0.76641232 -1.3013949 4288142815
5.6632905 0.73482317 -1.306904 4283534220
5.6802502 0.70161021 -1.3098879 4287484121
5.7057152 0.66923666 -1.3149378 4286500057
5.7251916 0.63593256 -1.3186104 4286236884
5.763834 0.60444355 -1.3268739 4284857539
5.7645283 0.56877947 -1.3261852 4286038214
5.7814779 0.53465217 -1.3293989 4289717207
5.7894983 0.49958563 -1.3305465 4292137406
5.7565575 0.46117908 -1.3220536 4286677100
1.8718091 0.13866545 -0.40274528 4292988607
1.8755379 0.12737487 -0.40343392 4285815110
1.8791986 0.11604376 -0.40412253 4292005321
1.8711288 0.10402659 -0.40205666 4293191397
1.8668712 0.092304282 -0.40090898 4294767858
1.8547614 0.080302969 -0.39792493 4294964975
1.842575 0.068453759 -0.39494091 4285094987
1.8351775 0.056906946 -0.39310461 4289172083
1.8014371 0.044805713 -0.38507068 4291079813
1.7539946 0.032868411 -0.37382323 4284961859
1.6977161 0.021406583 -0.3605099 4283843640
1.7036552 0.011025658 -0.36188713 4283974199
1.6900647 0.00057053246 -0.35867357 4284172346
1.7075554 -0.0099051064 -0.36280531 4284632897
1.7045429 -0.020346768 -0.36211666 4284501311
1.7004932 -0.030734029 -0.36119851 4283909174
1.7051377 -0.041286379 -0.36234623 4283317555
1.7213907 -0.052253876 -0.3662484 4282923314
5.7804155 -0.24741183 -1.3245785 4285300863
5.7554574 -0.28173149 -1.3190695 4285884781
5.7400146 -0.31629041 -1.315856 4293584613
5.7379661 -0.35150453 -1.315856 4294703862
5.65413 -0.38120028 -1.2965746 4294375410
5.6536255 -0.41602919 -1.2970337 4294244081
5.7567196 -0.45915326 -1.3220536 4294177779
5.7644606 -0.49538466 -1.3245785 4294506996
5.7564669 -0.53029859 -1.3234308 4292533454
5.7598848 -0.56627673 -1.3250376 4290756281
5.7679181 -0.60282284 -1.327792 4289311407
5.7679801 -0.63863146 -1.3287102 4279511857
5.7533193 -0.67276698 -1.3261852 4279846743
5.7413549 -0.70710373 -1.3243489 4280307042
5.7311168 -0.74156898 -1.3229717 4282342759
4.761035 -0.64570743 -1.093202 4290558127
4.7319288 -0.67135167 -1.087234 4283125846
5.6596918 -0.83851469 -1.3094288 4279516748
5.6380882 -0.87069964 -1.3055266 4293655796
5.5999675 -0.90002459 -1.2977223 4285621842
4.7841072 -0.79898649 -1.1039904 4287527009
4.7982945 -0.83165205 -1.1085812 4289236848
4.7959752 -0.86159468 -1.1092699 4283846203
5.5139961 -1.0256104 -1.2828022 4287607731
5.4817934 -1.0544586 -1.2766047 4292540652
5.3998051 -1.073082 -1.2584709 4278519821
5.4083743 -1.1093245 -1.2621436 4278456334
5.3091006 -1.1229454 -1.2398782 4282734686
5.3315907 -1.1619272 -1.2469939 4278854970
5.3101153 -1.1914221 -1.2435508 4281945428
5.278048 -1.2182887 -1.2375828 4283852637
5.233541 -1.2418846 -1.2286307 4279768332
4.7795043 -1.1651343 -1.1202878 4283449395
4.7779303 -1.1958572 -1.121665 4283779385
4.8402615 -1.2430727 -1.138651 4281804833
4.8193665 -1.2692772 -1.1354374 4283511328
4.8284011 -1.3033915 -1.1395692 4287192386
4.8315692 -1.3361074 -1.1423236 4286995523
4.8317089 -1.3681153 -1.1443895 4286799427
4.837245 -1.4018011 -1.1478326 4287260489
4.8313522 -1.4322854 -1.1485212 4288047960
4.8373761 -1.4664222 -1.1521939 4285879121
4.8301468 -1.4966524 -1.152653 4290228645
4.6009636 -1.4566213 -1.0982519 4286413930
4.5900874 -1.4842256 -1.0977929 4293849307
4.5845904 -1.5135829 -1.098711 4294835671
4.5410914 -1.5301826 -1.0902179 4294967249
4.5306964 -1.557701 -1.0899885 4294440386
4.5623827 -1.5999689 -1.1003177 4290754925
4.5194879 -1.6161325 -1.0920544 4294439836
4.4939413 -1.638165 -1.0881522 4294506908
4.4765062 -1.6629964 -1.0863159 4294441892
4.4853334 -1.6976691 -1.0911362 4294572714
4.5057087 -1.737065 -1.0989405 4293454520
3.0215905 1.0811653 -0.75588906 4287138171
3.0364091 1.0655001 -0.75805569 4285224515
3.1107979 1.0702392 -0.7758702 4288648336
3.1145475 1.0502003 -0.77514797 4283916643
4.0774503 1.2646877 -1.0187731 4282074426
4.0786324 1.2376704 -1.0170879 4283845429
3.9326332 1.1670171 -0.97736645 4286867287
4.0776682 1.1829246 -1.0129954 4285420362
4.780477 1.3552701 -1.192344 4286344287
4.8233104 1.3355031 -1.2012511 4284433710
4.8351612 1.3068966 -1.2022141 4291667589
4.828074 1.2732404 -1.1983624 4288507975
4.8160567 1.238511 -1.1933069 4292055658
4.8329802 1.2112987 -1.1957142 4291726944
4.8431497 1.1823126 -1.1964364 4292912255
4.8606997 1.155044 -1.1990845 4283377168
4.8771515 1.1273857 -1.201492 4282723878
5.0402203 1.1325853 -1.2412134 4280891720
5.1589646 1.1260867 -1.2696203 4280567643
5.1952105 1.1006533 -1.2770832 4281619814
5.2322884 1.0750128 -1.2847867 4285299849
5.2644863 1.0480098 -1.2912866 4289641660
5.3289518 1.0269033 -1.3059715 4288198837
5.346602 0.99632233 -1.3088603 4288266688
5.3755393 0.96762913 -1.314638 4288334538
5.4129314 0.94011474 -1.3225822 4288466898
5.4387002 0.91025275 -1.3276377 4288335312
5.472929 0.88150048 -1.3348598 4288007375
5.5041318 0.85191649 -1.3413597 4287613899
5.522696 0.82012659 -1.34473 4287482060
5.5535679 0.78992015 -1.3512299 4288008396
5.5881233 0.75988966 -1.3586928 4284585612
5.6138558 0.72833896 -1.3639889 4288138961
5.632668 0.69566673 -1.3676 4287089622
5.6512895 0.66279101 -1.3712111 4287156698
5.6523561 0.62778091 -1.3704888 4287089363
5.6927824 0.5969407 -1.3796368 4287549146
5.7195191 0.56429106 -1.3854145 4288994272
5.7257738 0.52945483 -1.3861367 4288397510
5.7327819 0.49464673 -1.3870996 4290961894
5.7647333 0.46179268 -1.3943217 4287543496
1.8289344 0.13442051 -0.41476575 4288310885
1.8306932 0.12326168 -0.41500646 4285744958
5.8148818 0.35823908 -1.404914 4282739322
5.834414 0.3235237 -1.4092473 4283067776
5.8246565 0.28714249 -1.4063585 4281683287
5.8137026 0.25085118 -1.4032289 4287072135
1.7860867 0.065279387 -0.4032104 4288123255
1.8368999 0.055885825 -0.41572869 4289765502
1.7692881 0.042921212 -0.39887714 4290026614
1.716145 0.031061864 -0.38563666 4284829246
1.7027161 0.020359423 -0.38226634 4283974713
1.7018384 0.0099050561 -0.3820256 4283711541
