# .PCD v0.7 - Point Cloud Data file format
VERSION 0.7
FIELDS x y z rgb
SIZE 4 4 4 4
TYPE F F F U
COUNT 1 1 1 1
WIDTH 1115
HEIGHT 1
VIEWPOINT 0 0 0 1 0 0 0
POINTS 1115
DATA ascii
35.536991 -5.0380945 2.2241979 4293519815
35.767063 -5.2947879 2.2403295 4294637016
35.97263 -5.5509915 2.2550611 4290885033
35.284489 -5.6666684 2.2147014 4294897640
35.390827 -5.9067264 2.2234674 4285294433
36.592148 -6.3382607 2.3001082 4286808187
36.897396 -6.6245813 2.321475 4286808187
36.989517 -6.8756642 2.3297539 4286939258
36.866257 -7.0870457 2.3247623 4286677629
36.770191 -7.3028135 2.3215358 4286677375
36.630821 -7.5090508 2.3156919 4286611582
36.540108 -7.7243814 2.3129528 4286480511
36.380844 -7.9242234 2.3060129 4285560185
36.197132 -8.1171618 2.2976124 4285559672
36.059113 -8.3189154 2.2921336 4285954430
35.932602 -8.5222759 2.2874463 4286217087
35.773933 -8.7168369 2.2808111 4286151294
35.67717 -8.9255171 2.2781324 4285428086
35.525051 -9.119441 2.2720451 4283652190
35.363213 -9.3095484 2.2654097 4284245095
35.240856 -9.5089359 2.2613313 4285165680
35.095264 -9.7010546 2.2558525 4283783514
34.93808 -9.8887568 2.2497041 4284573032
34.601585 -10.023237 2.2322333 4284507497
34.667675 -10.273364 2.2403905 4285890690
34.546669 -10.468519 2.236738 4285166196
34.411232 -10.658442 2.2322333 4284770922
34.318539 -10.86095 2.2305288 4285823099
34.227509 -11.063645 2.229007 4286415493
34.119171 -11.260315 2.2264502 4286284931
34.049435 -11.469454 2.2264502 4285626748
22.340511 -7.6781497 1.4759307 4285954943
22.316526 -7.8233399 1.4774525 4286480259
22.208891 -7.9389558 1.4736173 4287138706
22.162573 -8.0761032 1.4737999 4283981418
22.04991 -8.1886549 1.4697216 4289705932
21.925499 -8.2958908 1.4649124 4284836980
21.923546 -8.4492912 1.4681387 4286153345
21.540514 -8.4538298 1.4464674 4285889919
21.467846 -8.577692 1.4451282 4286416517
32.890011 -13.376363 2.2006395 4285890171
32.849739 -13.595479 2.2034397 4285889919
32.704067 -13.770832 2.1993611 4286020478
32.599689 -13.962989 2.1980827 4286019195
32.42738 -14.125283 2.1923606 4285823099
32.17765 -14.252035 2.181525 4285823099
32.004044 -14.410681 2.1758027 4285296753
31.888699 -14.594736 2.1740375 4285363827
31.782257 -14.782549 2.1729417 4285429620
31.694563 -14.978991 2.1731851 4285363059
31.683041 -15.212066 2.178664 4285495161
31.586412 -15.40487 2.1784813 4285759104
31.492189 -15.598833 2.1785421 4284771952
31.356649 -15.772036 2.1758637 4284442473
31.225506 -15.946889 2.1735504 4284968818
31.058838 -16.102808 2.1688631 4283915613
30.94973 -16.287964 2.1681936 4283849818
30.816631 -16.460163 2.1659412 4285297266
30.679953 -16.629911 2.1635063 4286020736
30.602699 -16.831799 2.1652715 4285626496
30.47444 -17.005638 2.1635671 4285562246
30.338251 -17.174603 2.1613755 4285562245
30.172575 -17.326134 2.1571753 4285758595
30.030333 -17.490347 2.1546793 4285758847
29.949947 -17.690523 2.1566274 4285824639
18.180702 7.9363618 1.0021536 4294507749
18.312576 7.8605142 1.0065831 4294573289
18.412916 7.7701406 1.0093576 4294573297
18.5156 7.6799784 1.0122781 4291020477
18.665964 7.6084557 1.0177298 4285625968
18.791109 7.5253472 1.0218672 4284770920
18.916864 7.4413548 1.0260532 4284311652
19.03018 7.3514214 1.0296066 4283982174
19.153378 7.2642736 1.0336953 4283258964
19.271536 7.1741467 1.0375407 4283127635
19.410885 7.0907259 1.0425056 4282929999
19.547112 7.0048523 1.0473244 4282797132
19.676414 6.9152546 1.0518026 4282796619
19.804409 6.8240075 1.0562321 4282666827
19.92918 6.7304897 1.0605155 4282994761
20.082943 6.6454258 1.0663079 4282927938
20.188898 6.5433254 1.0696665 4282927166
20.342909 6.455586 1.0755075 4282006062
20.47657 6.3599782 1.0803264 4282466613
20.641352 6.2725577 1.0867516 4282532406
20.759876 6.169693 1.0908403 4282730040
20.877909 6.065608 1.094929 4284637519
21.035797 5.971765 1.1010622 4285558106
21.201981 5.8786135 1.1076334 4285557078
21.316708 5.7698131 1.1116247 4283583029
19.277405 5.0909739 1.0070698 4294965729
19.312149 4.9735909 1.0072645 4284899913
21.576237 5.4158664 1.1195102 4285820512
21.592567 5.2793412 1.1186826 4282464558
21.597349 5.140276 1.1173197 4293386959
21.647943 5.012167 1.1182933 4282794283
21.783527 4.902936 1.1235502 4286084187
21.896141 4.7873201 1.1276876 4285229394
22.075567 4.6848173 1.1351836 4285426005
22.214445 4.5720339 1.1406839 4285229141
22.387049 4.4645615 1.1478879 4285032274
22.624872 4.3678293 1.1583531 4284375372
22.744522 4.2463427 1.1629773 4285427035
22.876305 4.1258569 1.1682342 4286216040
23.021242 4.0063109 1.1741726 4286149218
23.268011 3.9023273 1.1851733 4286215011
23.415758 3.7795441 1.1913064 4287004275
23.561884 3.6549408 1.1973908 4287727996
23.712299 3.5294216 1.2037187 4285886046
22.11483 3.1529918 1.1240369 4287794300
3.7845728 0.51492685 0.22154552 4283780670
24.371487 3.1702049 1.2331187 4286282092
24.413279 3.0234292 1.2342381 4281543718
3.8330886 0.44984683 0.22349256 4284174931
3.6382358 0.40430301 0.21380612 4290098100
3.6962743 0.38782585 0.21653196 4292927203
3.7055423 0.36582774 0.21687269 4292268501
2.5500762 0.23559745 0.16021447 4283978583
2.3196192 0.1998525 0.14887309 4283978575
2.2043171 0.17624049 0.14317808 4285229923
2.0539546 0.1514606 0.13577941 4285361768
2.0239537 0.1367498 0.13427046 4285494117
1.8841915 0.11561583 0.12740722 4287400060
1.8958354 0.10466488 0.12794265 4283449658
1.8605288 0.091246359 0.12619033 4283319101
1.8251302 0.078265108 0.12443802 4284898387
1.8235799 0.066990234 0.12434067 4287462006
1.7989984 0.055020116 0.12312379 4291806911
1.7274101 0.042176548 0.11961915 4294966007
1.6986761 0.031027609 0.11820757 4280028426
1.6888472 0.020476125 0.11772081 4281607715
1.6659688 0.0099596819 0.11660127 4281804067
1.6500174 -0.000271414 0.11582246 4281935140
1.6499847 -0.010395725 0.11582246 4282394151
1.6458949 -0.020472798 0.11562777 4284365370
1.640745 -0.030482231 0.11538438 4286928203
1.6854608 -0.041627616 0.11757478 4288704602
29.784962 -1.0819503 1.4878858 4287136362
29.909485 -1.2702762 1.494311 4294898657
28.802727 -1.400413 1.4407194 4294108359
29.908598 -1.6381439 1.4951385 4294832333
29.952818 -1.8249675 1.4978156 4294242770
30.08556 -2.0184093 1.5048736 4294242768
30.494974 -2.2338967 1.525512 4294900698
30.722645 -2.4401762 1.5373402 4286413399
31.155922 -2.6670449 1.5592928 4293518534
31.462227 -2.8878226 1.5751122 4294965726
31.672546 -3.1032095 1.5863076 4287266156
31.557539 -3.2875583 1.5816348 4294965998
32.465031 -3.583559 1.6271464 4282005547
32.413662 -3.7793396 1.6257347 4293847248
32.492962 -3.9908144 1.630797 4294834131
33.419834 -4.3129339 1.677574 4292991927
33.484795 -4.5303631 1.6821009 4293058235
34.393902 -4.868412 1.7282453 4293978307
34.643997 -5.1208262 1.742069 4294175704
35.066021 -5.4032569 1.7644597 4288451971
35.085464 -5.6268554 1.7670882 4294176465
35.121216 -5.8538513 1.7705928 4293452742
35.39761 -6.1233716 1.7860717 4283979076
35.804733 -6.4202967 1.8081216 4285427049
36.225246 -6.7253623 1.8309504 4285755762
36.180351 -6.9469447 1.8308043 4285888372
36.072388 -7.1559868 1.8275918 4285625202
36.004311 -7.3723798 1.8264235 4285098604
35.869465 -7.5743833 1.8219941 4284967272
35.798889 -7.7892356 1.8208259 4286152573
35.689022 -7.9949932 1.8177594 4285955192
24.099766 -5.5546885 1.2406633 4284506717
24.004 -5.6879511 1.2375968 4283189317
34.465221 -9.5187912 1.7778941 4280427301
34.359245 -9.9449034 1.7785757 4285166458
21.994682 -6.513082 1.1532909 4291153106
22.047035 -6.6759896 1.1580124 4294770175
21.998024 -6.8087792 1.1576229 4294046706
21.934879 -6.9370046 1.1565521 4294901759
21.743629 -7.0235767 1.1489588 4291743699
21.598625 -7.1233926 1.1437504 4294705150
21.30176 -7.1707168 1.1307541 4294573818
21.246023 -7.2973938 1.13017 4294638328
21.245153 -7.4431391 1.1324577 4294769655
21.217894 -7.5800767 1.1334313 4294835450
21.166292 -7.7084155 1.1331879 4294374645
21.039936 -7.8089547 1.1290991 4290888121
20.87858 -7.895165 1.1232095 4294704115
20.629343 -7.9459486 1.1127442 4294572789
20.828474 -8.1697454 1.1257405 4289508786
21.082209 -8.4188747 1.1417061 4284376934
21.436369 -8.7131624 1.1630746 4283916894
21.820925 -9.0258493 1.1861955 4285166700
32.235493 -13.565274 1.7397813 4285099624
32.124104 -13.751021 1.7383211 4285559155
31.986008 -13.924749 1.7354978 4286282619
31.646053 -14.008366 1.721966 4285888374
31.523981 -14.186293 1.7200677 4285626229
31.399103 -14.36242 1.7180721 4285035373
31.260569 -14.531657 1.7153949 4285233529
31.283709 -14.776514 1.7214793 4283918699
31.192453 -14.968188 1.7214793 4284444013
31.068598 -15.143984 1.7197757 4284046938
30.910641 -15.302428 1.716271 4285230442
20.093857 -10.101975 1.1314356 4290823365
20.038609 -10.22871 1.131825 4284835171
19.979017 -10.353312 1.1320198 4286679939
30.120039 -16.557829 1.71043 4287074457
29.977747 -16.719952 1.7081909 4287338656
29.861551 -16.896198 1.7074608 4286878103
29.731327 -17.064192 1.7060006 4282995540
29.612251 -17.238258 1.7052218 4284311400
29.504204 -17.418615 1.7051244 4285166707
29.365917 -17.580854 1.7033721 4285101168
17.945711 7.8261433 0.75007349 4293057983
18.032887 7.7328176 0.75164169 4294571484
18.157347 7.6546326 0.75470513 4292072126
18.335993 7.5977788 0.75992024 4294441190
18.667337 7.6012006 0.77115273 4294045916
18.831465 7.5336552 0.77578437 4282467118
18.939653 7.442452 0.77822781 4284770391
19.039968 7.3473268 0.78037947 4284376663
19.182817 7.2675347 0.78420877 4284638294
19.193329 7.1371555 0.78289586 4284768853
19.139124 6.9836292 0.77910304 4284702547
19.064007 6.8239665 0.77454442 4284309072
19.164923 6.7277155 0.776842 4285294938
19.280493 6.6356864 0.77972305 4285229396
19.371981 6.5345054 0.78169239 4285359700
19.506596 6.4468756 0.7853393 4285688407
19.639914 6.3575311 0.78894979 4285951324
19.758574 6.2622638 0.79201317 4285688415
19.921663 6.1796927 0.79679066 4285886305
20.053875 6.0860691 0.80040115 4285754460
20.205805 5.9970255 0.80477744 4286346594
20.342999 5.9021678 0.80860674 4285754970
20.482668 5.8066692 0.81254542 4285360212
20.594959 5.7022119 0.81546295 4285227856
20.706738 5.5965948 0.81838048 4285621082
19.303791 5.0905452 0.76415068 4291806400
19.325953 4.9697633 0.76382244 4282662189
21.236639 5.3223615 0.83457285 4284832843
21.321321 5.204752 0.83654219 4290292886
21.453972 5.0978541 0.84033501 4285489476
21.630898 4.9998751 0.84580541 4285294671
21.777199 4.8931246 0.85014522 4287925639
21.945456 4.7896667 0.85532391 4294109674
22.089792 4.6793571 0.85962725 4294833379
22.281563 4.5773087 0.86571765 4294636502
22.419981 4.4625483 0.86983865 4284175687
22.561752 4.3470168 0.87410557 4285162847
22.659719 4.221859 0.87676781 4291149994
22.644873 4.0754852 0.87527257 4292004517
22.667482 3.9361205 0.87519968 4292004517
22.657698 3.7913544 0.87395972 4292005283
22.755516 3.6643312 0.87673134 4294833881
22.90991 3.5451128 0.88161826 4290753961
23.002401 3.4150391 0.88424402 4282988079
3.9515522 0.56222945 0.18126193 4293584084
22.187019 3.0162132 0.85273457 4293713332
23.699593 3.0738287 0.90773028 4292661165
23.762636 2.9338624 0.90937138 4281674781
3.6624281 0.42971396 0.17017525 4288648598
3.6411581 0.40458745 0.16929999 4283846740
3.3066428 0.34692764 0.15693691 4290361523
2.9136083 0.26963332 0.14238566 4284243287
2.8923082 0.24977614 0.14154688 4292266933
25.128817 2.0118587 0.95557797 4289639845
2.2533329 0.16685018 0.11806064 4283454282
2.3181255 0.15734136 0.12039468 4285099626
2.1774099 0.13439743 0.11521603 4293848806
1.8499156 0.10285161 0.10321764 4282266924
1.8215661 0.09007363 0.10216003 4282331692
1.8011179 0.077991627 0.10139418 4281936934
1.7726016 0.065868847 0.10033657 4282924343
1.7539941 0.054406624 0.099643648 4291345596
1.7263221 0.042953547 0.098622508 4289502878
1.700575 0.031879134 0.09767431 4282463792
1.6687622 0.021048088 0.096507289 4281345824
1.6668613 0.010795876 0.096434347 4281935653
1.6539047 0.00056658802 0.095960245 4282066469
1.6528777 -0.0095755691 0.095923781 4282656553
1.64979 -0.019680792 0.09581437 4284365885
1.6526358 -0.029858202 0.095923781 4285876542
1.6823927 -0.040730502 0.097017854 4287652434
1.7300566 -0.052518882 0.098768383 4281605397
28.609676 -1.0502453 1.0803758 4292267452
28.391033 -1.2166976 1.0726444 4294963421
28.724392 -1.4076115 1.0851169 4294371010
29.672123 -1.6366271 1.1200908 4294962886
29.886946 -1.8324857 1.128333 4293978056
30.219131 -2.0390494 1.1409149 4293254335
30.418333 -2.2400675 1.1486828 4293385666
30.414974 -2.4275434 1.149084 4293385414
30.442316 -2.6178026 1.1506522 4283649859
30.529177 -2.814085 1.1544449 4294833387
30.71422 -3.0213153 1.1618847 4291214776
31.029057 -3.244643 1.1741384 4294965236
31.467449 -3.485811 1.1909872 4281015568
31.777977 -3.7177305 1.2032044 4291872682
32.277264 -3.9770572 1.2224238 4293451702
32.582279 -4.2177572 1.234568 4294634945
32.801369 -4.4509263 1.2436124 4294699975
33.143478 -4.7046385 1.2572519 4294964434
33.520275 -4.9681368 1.2722408 4294898905
33.497066 -5.1749396 1.2725326 4294899684
34.524357 -5.5507607 1.3117006 4293715923
34.646366 -5.788681 1.3174992 4291807414
23.162785 -4.7522678 0.89850354 4282135348
23.115591 -4.8905787 0.89784706 4282004016
24.788967 -5.4037652 0.96148598 4283126863
24.066938 -5.401258 0.93573868 4287074445
23.949606 -5.5294938 0.93260235 4286744712
23.978426 -5.6913433 0.93497282 4283385935
25.228504 -6.1518354 0.98325819 4280689454
25.259109 -6.323751 0.98584747 4281086011
25.196602 -6.472652 0.98497224 4285429369
21.39854 -6.0604477 0.84722769 4283918450
21.383026 -6.1980324 0.84806651 4285957516
21.196087 -6.2850819 0.84241378 4284377194
21.144693 -6.4112506 0.84193963 4284177754
21.080139 -6.5331788 0.84099144 4294901751
21.064425 -6.6702456 0.84193963 4293783775
20.995525 -6.7904501 0.84088206 4292467135
20.887989 -6.8975258 0.83836567 4290493361
20.631254 -6.9534259 0.8301236 4294441203
20.446449 -7.0311375 0.82465321 4294704111
20.318995 -7.1270232 0.82140744 4294506218
20.155378 -7.2088203 0.81677586 4294637290
20.066641 -7.3162661 0.81506181 4292926158
20.067272 -7.4563107 0.81684875 4283584580
20.062267 -7.5948691 0.81845343 4294177771
20.191513 -7.7857823 0.82534611 4293980398
20.281029 -7.9635882 0.83074361 4294310646
20.817307 -8.3219614 0.85375571 4294835709
20.962086 -8.5293875 0.86148721 4293256675
31.624428 -13.322706 1.2879226 4281608736
31.51453 -13.50469 1.2868285 4282333234
31.248768 -13.618353 1.2795712 4282466623
31.15731 -13.806597 1.2792794 4283388503
31.075651 -13.999156 1.2794253 4283783265
30.973722 -14.182496 1.2788053 4286150530
30.829039 -14.345717 1.2765077 4285691770
30.7847 -14.555544 1.2782947 4288717219
19.60961 -9.4192638 0.82950366 4289638062
19.472412 -9.500845 0.8262943 4287865499
20.208881 -10.014177 0.85867906 4284243796
20.144375 -10.136641 0.85856968 4283447601
20.023954 -10.230498 0.85619915 4286663497
19.891613 -10.31728 0.85335457 4284887355
21.444357 -11.2902 0.9200204 4289892246
20.899612 -11.167706 0.90036345 4293186775
20.726154 -11.239043 0.89602363 4290031280
20.502033 -11.445288 0.8924861 4290690740
29.3253 -16.607908 1.265494 4288651159
29.223711 -16.788031 1.2655305 4284637786
29.126198 -16.970551 1.2657857 4283256139
29.029263 -17.153521 1.266114 4282666316
28.945751 -17.344673 1.2670622 4287600791
17.680607 7.7143507 0.50387311 4294108610
17.779055 7.6277957 0.5052315 4290622352
17.852234 7.5298305 0.50593501 4291084704
18.002453 7.463418 0.50867617 4292072115
18.095123 7.3720565 0.50991327 4286478684
18.277376 7.3158774 0.51350343 4285688916
18.380533 7.2266407 0.51503164 4282926386
18.487013 7.1378531 0.51665688 4283453510
18.609917 7.0544086 0.51871884 4282599741
18.73624 6.9711185 0.52087772 4282927936
18.851906 6.882771 0.52276981 4285229404
18.949312 6.7868595 0.52420104 4291414974
19.097179 6.7079048 0.52694213 4293455584
19.249512 6.6290164 0.52980459 4294046694
19.361813 6.5350809 0.53164816 4292729547
19.523033 6.4563408 0.53475314 4293781196
19.636465 6.3604612 0.53664523 4293451199
19.766602 6.2688718 0.53897399 4291214752
19.905897 6.1788883 0.54154533 4291281060
20.026657 6.0819101 0.54365575 4291412899
20.118221 5.9751415 0.5450384 4292333482
20.136263 5.8462887 0.54457754 4292267689
20.160215 5.7193499 0.54428643 4292266406
20.166027 5.5875316 0.54355872 4293121718
20.115974 5.4409766 0.5414483 4280817672
19.334141 5.102354 0.52099907 4292794319
19.337009 4.9763989 0.52029556 4294900700
20.587975 5.1639299 0.55083603 4292794803
20.69405 5.0557804 0.55270386 4292727209
20.813187 4.9497623 0.55491132 4293055400
21.014584 4.8616285 0.55918068 4292792766
21.150331 4.7565079 0.56182474 4288057993
21.23674 4.6392336 0.56325597 4285953125
21.412477 4.5401597 0.56691885 4292397230
21.589752 4.4395051 0.57063031 4293910459
21.712666 4.3260984 0.57300752 4291937711
21.854631 4.215137 0.57586998 4284635472
22.055012 4.1135964 0.5801878 4289635480
22.235287 4.0062084 0.58402056 4289502592
22.409159 3.8957338 0.5877077 4290292357
22.534193 3.7751789 0.59020627 4287332201
22.690172 3.6583297 0.59348106 4289109643
22.707254 3.518271 0.59335977 4294373594
4.0592847 0.60249525 0.13537443 4284041278
22.175673 3.1577237 0.57931453 4291737763
22.183735 3.0201125 0.57904768 4293514672
23.624464 3.0688074 0.61385751 4292134821
23.609116 2.9196191 0.61303276 4284374863
23.598785 2.771435 0.6123535 4280097816
3.797529 0.42138803 0.12850949 4291807953
3.6310232 0.38032073 0.12438569 4281873209
2.9774313 0.2747559 0.10835136 4282991940
3.0647159 0.2638897 0.11043752 4292860104
24.410254 1.9592122 0.63001311 4294702028
2.33196 0.17171349 0.092535332 4285361505
2.3249905 0.15685928 0.092341274 4283980377
2.0814476 0.12748063 0.08639814 4286938491
1.8396375 0.10120825 0.080503523 4290031532
1.8062755 0.088238128 0.079678759 4288189327
1.810778 0.077326559 0.079775788 4286676601
1.7802489 0.065062203 0.079023793 4286215021
1.7816139 0.054168608 0.079048052 4286082930
1.6909677 0.040969487 0.076840609 4294963967
1.6582028 0.02997366 0.076040104 4281015327
1.6683518 0.019924942 0.07628268 4281804069
1.6474491 0.0095511498 0.075773269 4282000933
1.6534749 -0.0005553629 0.075918809 4282198055
1.6504414 -0.010683594 0.075846039 4282525737
1.6613407 -0.020941179 0.076112874 4284957758
1.6561832 -0.031044429 0.075991586 4286468163
1.7089305 -0.042486653 0.077277243 4287719257
1.6596746 -0.051487189 0.076088622 4284829505
28.037031 -1.023422 0.7165646 4292072652
28.198021 -1.2025839 0.72063988 4288254592
28.389816 -1.3853177 0.7254914 4291674021
28.593397 -1.5711625 0.73065829 4292199327
28.938452 -1.7682707 0.73929405 4293187247
29.205349 -1.9645087 0.74606198 4294042045
29.467924 -2.163868 0.75275707 4294897614
29.736116 -2.3670781 0.75962198 4294502858
30.124432 -2.5840788 0.76944637 4294963919
30.532097 -2.8078547 0.77978015 4294766028
30.641645 -3.0076385 0.78288513 4291344281
30.65642 -3.1991222 0.78370988 4292791211
30.636213 -3.387166 0.78370988 4289566075
30.853165 -3.6029027 0.78953177 4289105273
31.210503 -3.8388748 0.79882246 4287067485
31.460995 -4.0657883 0.80554181 4285424204
22.678873 -3.4990127 0.59260774 4287398267
22.834646 -3.6666219 0.59697413 4289308321
22.998089 -3.8377538 0.60155886 4280032025
21.963308 -3.9427464 0.57725263 4293258219
21.943615 -4.0783496 0.57737392 4287400073
24.012243 -4.6153045 0.62911558 4289568158
24.169779 -4.799541 0.63372457 4284569432
23.23201 -4.7617216 0.61123765 4293518822
23.164209 -4.8961196 0.6102916 4285097314
22.801491 -5.7036939 0.60611928 4287665561
21.117422 -5.6975217 0.56653076 4285232511
20.872002 -5.7689404 0.56124258 4285364867
20.817936 -5.8917284 0.56078166 4285562503
20.793875 -6.0229692 0.56109703 4284773242
20.739275 -6.1453333 0.56066036 4285693829
20.663862 -6.2611675 0.55971432 4285033583
20.596407 -6.3789692 0.5589866 4285624430
20.511127 -6.4907508 0.55782223 4284506719
20.446182 -6.6084905 0.55719155 4282862412
20.335945 -6.7109551 0.5554207 4281282613
20.245117 -6.8190169 0.55415928 4283387224
20.135771 -6.9200444 0.55243701 4284901228
19.973112 -7.0014715 0.54935628 4292073943
19.854467 -7.0969772 0.54741567 4294705150
19.728827 -7.1888962 0.54530525 4294704382
19.684345 -7.3098145 0.54530525 4294309878
19.818649 -7.4983702 0.54996276 4284111702
20.031601 -7.7197599 0.55670637 4294704121
20.102974 -7.8892665 0.55981135 4294441464
20.774605 -8.3002577 0.57863533 4294441471
18.137661 -8.571537 0.5225758 4294241513
19.503868 -9.5116034 0.56233418 4290822588
19.443348 -9.6302099 0.56228566 4292401107
19.417833 -9.7663984 0.56320745 4291676356
20.017294 -10.222234 0.58118236 4292135367
19.968395 -10.352225 0.58157051 4287785589
20.858217 -10.976377 0.60772032 4289761679
20.762257 -11.089084 0.60694408 4293976275
19.025051 -10.463417 0.56264949 4289569697
17.414688 7.5945768 0.26148367 4290885007
17.485773 7.4982195 0.2618041 4290359179
17.591345 7.4160347 0.26257551 4292135850
17.748295 7.3542705 0.26401153 4292464817
17.86347 7.2738886 0.2649135 4293122747
17.949543 7.1808562 0.26544756 4291938473
18.023046 7.0822864 0.26582733 4291609508
18.015787 6.9521279 0.26518646 4291477920
18.10112 6.8577495 0.26573238 4291149727
18.183159 6.7615385 0.26624271 4290755226
18.288181 6.6731482 0.26704973 4289965970
18.421984 6.5941687 0.26822466 4282399015
18.547956 6.511147 0.26930463 4285688162
18.669817 6.4255252 0.27033716 4294636515
18.788479 6.3376932 0.27133405 4291017371
18.951389 6.2633934 0.27288878 4292529060
19.047495 6.1657753 0.27361271 4292528041
19.194588 6.0835261 0.27497751 4291739811
19.309868 5.9899273 0.2759507 4292268204
19.440985 5.9000778 0.27712563 4291544481
19.559261 5.8051453 0.27814627 4291676322
19.710714 5.7187343 0.27958229 4290360460
19.862799 5.6309543 0.28103018 4290493070
19.97118 5.5295153 0.28194404 4292465334
20.073267 5.4253936 0.28278664 4282067740
19.358782 5.1050453 0.27361271 4291016106
19.351004 4.9762049 0.27313799 4294965208
20.567404 5.1546493 0.28765249 4294569161
20.696758 5.0523014 0.28885117 4294042560
20.823681 4.9480968 0.2900261 4293580976
20.978354 4.8490539 0.29154518 4292531376
21.098444 4.7406278 0.29264891 4294701779
21.128111 4.6112938 0.29266077 4293186220
21.116877 4.473279 0.29218605 4294173113
21.13805 4.3424168 0.29211485 4294043338
21.121147 4.2040462 0.29159266 4294242257
21.219204 4.0883684 0.2924709 4286937954
21.322533 3.9727435 0.29342034 4290226839
21.467552 3.8636193 0.29488009 4293450432
21.55588 3.7431138 0.29566339 4293844679
21.837818 3.6541765 0.29878464 4285424465
21.981253 3.539665 0.30024442 4283122486
4.0692272 0.62999952 0.084864676 4293320653
22.286135 3.3087108 0.30340129 4280095505
22.279287 3.1681027 0.30308086 4291936941
22.256693 3.0256836 0.30258241 4294963921
22.914438 2.972007 0.31023723 4293386687
23.040413 2.8447046 0.31153083 4289967253
23.093189 2.7074687 0.31195807 4279374346
3.8172352 0.42413351 0.081577249 4286875007
3.6835215 0.3864249 0.079951338 4294901752
3.2350416 0.31936812 0.074575156 4285690733
2.9939923 0.27706158 0.071679369 4280823342
2.9577794 0.25542137 0.071228385 4292730834
23.889862 1.9126848 0.32044369 4292530082
23.875221 1.7641479 0.32013512 4283187238
2.3404465 0.15885265 0.063834652 4285689702
2.4222183 0.1494644 0.064795956 4289046174
1.8350328 0.10202727 0.057805724 4292466383
1.8096575 0.089487299 0.057497159 4288980383
1.8151677 0.078596994 0.057556495 4287203459
1.7836398 0.06627661 0.057176724 4285757817
1.760026 0.054592393 0.056891892 4292665300
1.7593282 0.043767408 0.056880023 4284570447
1.6955791 0.031786617 0.056120474 4279436548
1.6877433 0.021283103 0.056025531 4281803557
1.6748434 0.010845726 0.055871248 4282263078
1.6628792 0.00056756701 0.05572883 4282263848
1.6588517 -0.0096115731 0.055681359 4282198055
1.6527623 -0.019716946 0.05561015 4283182636
1.6546099 -0.029894326 0.055633888 4286072900
1.655395 -0.04007069 0.055645756 4287719257
23.687376 -0.86948383 0.3173224 4289567104
23.654621 -1.0136541 0.31700197 4291211670
23.58803 -1.1558398 0.3162899 4286802258
23.520592 -1.2972466 0.31557781 4286012487
23.425358 -1.4362167 0.3145453 4285027652
23.316338 -1.573192 0.31335852 4284304701
23.263365 -1.7130703 0.31284818 4283845178
23.182644 -1.8502095 0.31201744 4283583037
23.099123 -1.9862516 0.31116295 4288715669
23.012821 -2.121155 0.3102847 4291216832
22.670979 -2.2300117 0.30636829 4291808972
22.802065 -2.3842609 0.308101 4289507765
22.763155 -2.5214844 0.30781618 4288849583
26.358368 -3.0836196 0.35096806 4289506735
22.393574 -2.8987141 0.30399469 4282731842
22.54199 -3.4823699 0.30671245 4294370269
21.516167 -3.4591815 0.29464275 4294435812
21.435362 -3.5812497 0.29393065 4286543220
21.887865 -3.795053 0.29965103 4281676850
22.012774 -3.9559925 0.30144307 4283779914
21.926153 -4.0794616 0.30069539 4283048995
22.098072 -4.2519002 0.30308086 4284628805
21.968592 -4.3669395 0.30183473 4283123524
21.300949 -4.5066233 0.29440537 4287400073
20.743776 -5.4646111 0.29059577 4283058002
20.708891 -5.5915284 0.29058388 4284966256
20.523848 -5.6769028 0.2887325 4286415244
20.417435 -5.7825637 0.28785425 4284508530
20.357559 -5.9007735 0.28755757 4284114029
20.28454 -6.014771 0.28710657 4283784552
20.203236 -6.1257749 0.28656065 4283193444
20.130884 -6.2389669 0.28613341 4283326572
20.054092 -6.3502951 0.28565869 4284312956
19.936737 -6.4479914 0.28468552 4285102470
19.855019 -6.5564036 0.28416333 4283984500
19.845686 -6.6886477 0.28455496 4285894033
19.775904 -6.8005366 0.28419894 4286287506
19.570566 -6.8644915 0.28214577 4290431176
19.254097 -6.886447 0.27869219 4289770159
19.241545 -7.0154195 0.27907199 4294834421
19.363102 -7.1946511 0.28116071 4294703610
19.558926 -7.4043126 0.2842108 4293586671
20.232445 -7.8015661 0.29336101 4293980148
23.562319 -9.5874643 0.3379133 4293392895
19.178471 -8.3579006 0.28429389 4294109153
19.287724 -8.5467205 0.28638265 4289899692
19.496572 -8.7827826 0.28978875 4279045650
18.16254 -8.4514246 0.27375513 4292533467
18.164581 -8.5883541 0.2744672 4294506485
18.819883 -9.1824522 0.28453124 4293649376
18.726452 -9.2795525 0.28404462 4292927964
18.665588 -9.3924837 0.28399718 4294836222
18.588017 -9.4968281 0.28373608 4292660163
20.00552 -10.376364 0.30347249 4294502094
17.950708 -9.4507637 0.27676958 4294966241
17.928539 -9.5800514 0.27725619 4293055424
18.146305 -9.8400297 0.28099459 4290160808
17.192839 7.5086341 0.023093387 4291149473
17.251451 7.4085245 0.023083612 4291872680
17.337118 7.3196483 0.023052895 4292003237
17.471294 7.2503171 0.022985175 4292595374
17.539528 7.1527977 0.022967026 4292134310
17.596081 7.0502505 0.02295725 4292595120
17.617607 6.9337258 0.022973308 4292068776
17.684072 6.8348703 0.022955157 4292463277
17.764944 6.7411375 0.022925835 4292793267
18.087097 6.7367353 0.022716396 4293320378
18.295273 6.6867418 0.022592127 4291675553
18.392437 6.5946126 0.02255024 4290557590
18.521231 6.5128222 0.022484615 4291477669
18.653488 6.4310026 0.0224162 4290227857
18.81386 6.357409 0.022326838 4291477914
18.919914 6.2641702 0.022277271 4291739805
19.024578 6.1695595 0.022228401 4294173903
19.153574 6.081769 0.022161381 4286674027
19.121775 5.9427576 0.022211647 4284636240
18.985666 5.7729421 0.02233731 4291607978
19.042778 5.6628962 0.022321254 4292527790
19.109814 5.5554385 0.022297516 4293054382
19.211838 5.4574838 0.02224795 4294040500
19.348068 5.3681121 0.022173248 4293318833
19.486813 5.2780566 0.022096455 4286610267
19.503363 5.1542997 0.022107625 4289107581
19.392275 4.997838 0.022210252 4293775283
19.626245 4.9299273 0.022063643 4294106041
20.065058 4.909492 0.021769729 4293513904
20.184298 4.8076043 0.021705501 4293055663
20.342985 4.7136946 0.02161265 4292859313
20.464201 4.6096649 0.021546327 4291345821
20.613232 4.5105247 0.021459758 4292399026
20.731489 4.4032865 0.021394834 4293318075
20.874668 4.3000131 0.021311756 4293909692
21.054621 4.2025871 0.021202147 4294371260
21.174267 4.091538 0.021135129 4294700498
21.332659 3.9865282 0.021040183 4294702306
21.462013 3.8745735 0.020965483 4294505966
21.232199 3.6986926 0.0211449 4291083178
4.1924405 0.7028988 0.033223279 4285424204
21.955173 3.5476456 0.020664588 4282925608
22.024948 3.4203866 0.020630378 4280293647
21.97134 3.274121 0.020682737 4285754733
21.901918 3.1265225 0.02074557 4290688681
21.96825 2.9985704 0.020712059 4285093705
22.084406 2.8765111 0.020642944 4283186496
22.2763 2.7626197 0.020520074 4288847255
22.33057 2.6303301 0.020493545 4285426784
3.8312902 0.42649317 0.033499736 4285953145
3.7731712 0.39658168 0.033542324 4288715920
3.5347161 0.34952897 0.033711269 4288057213
2.9682491 0.27494445 0.034109905 4282663240
2.8881879 0.24963222 0.034167152 4293386707
23.673159 1.9083276 0.019610409 4291873209
2.3385842 0.15859783 0.034554616 4285362020
2.4542921 0.15138008 0.034474328 4287992457
1.8111837 0.1002534 0.034924623 4294046185
1.8117648 0.089138299 0.034924623 4289045917
1.8132765 0.078063503 0.034923926 4288321424
1.7867407 0.065922759 0.034942776 4287465084
1.7441325 0.053608321 0.034972794 4282134051
1.6904459 0.041541427 0.035010494 4283909174
1.6726723 0.030823983 0.03502306 4281079821
1.6588314 0.020378197 0.035032835 4281738013
1.6629249 0.01022684 0.035030041 4282000933
1.6499563 1.3773446e-05 0.035039119 4282328871
1.6509254 -0.010115584 0.035038419 4282853162
1.6458325 -0.020187525 0.03504191 4283904819
1.6516769 -0.030391904 0.035037722 4285875513
1.687449 -0.041383404 0.035012588 4287851096
20.822336 -0.75309604 0.021644764 4294173129
20.801338 -0.88016981 0.021655934 4294699475
20.785557 -1.0073043 0.021662915 4292923325
20.901804 -1.1415237 0.021577045 4294963167
21.917139 -2.0082099 0.020825855 4294965494
22.471701 -2.1981146 0.02042792 4290887098
22.587093 -2.3493998 0.020337163 4282403679
22.874424 -2.5212374 0.020124931 4288591326
23.370071 -2.7210805 0.019765394 4286223795
23.365837 -2.8660076 0.019756317 4278191637
23.332935 -3.0074069 0.019766789 4279703068
23.352692 -3.1557393 0.019739563 4279965988
23.311106 -3.2958903 0.019754922 4279503117
23.334961 -3.4454334 0.019723505 4278779905
23.277802 -3.5830741 0.019748637 4292201930
22.594795 -3.6200364 0.020215688 4282334263
22.358103 -3.7229753 0.020367183 4292204240
22.427467 -3.8760955 0.020301558 4282004793
22.209347 -3.9789045 0.02043909 4283384393
22.177631 -4.1138272 0.020443978 4285554015
22.068493 -4.2338185 0.020503318 4280423962
22.022482 -4.3652611 0.02051728 4281544244
21.980587 -4.4973001 0.020527754 4280624170
22.825052 -5.1094813 0.019861735 4280490539
22.822508 -5.2561684 0.019840792 4280163118
22.792746 -5.3967967 0.019838696 4279374889
22.726164 -5.5285139 0.019862434 4285757841
20.38888 -5.2258759 0.02149676 4294113275
20.320646 -5.3414769 0.021522591 4293915888
20.251764 -5.4564381 0.021548422 4292074195
20.140783 -5.5593162 0.021604273 4292272092
20.07069 -5.6727319 0.021630103 4288916908
19.972101 -5.7774391 0.021676179 4286942608
19.786686 -5.8556175 0.021785088 4288653225
19.736984 -5.9728613 0.021794863 4290033596
19.638821 -6.0749431 0.021839542 4290033596
19.566851 -6.1844831 0.021864675 4290691528
19.46287 -6.2832322 0.021912847 4289902012
19.417303 -6.4003448 0.021917734 4290823627
19.367239 -6.5158601 0.021925412 4289378237
19.273928 -6.6163926 0.021964509 4289181622
19.204651 -6.724618 0.021985453 4294245882
19.145134 -6.8359408 0.021998717 4294637301
19.154514 -6.9720941 0.021960318 4289110689
19.445154 -7.2132897 0.021711785 4293520613
21.758297 -8.3763676 0.019914096 4286684337
21.597559 -8.4670191 0.019995777 4288455095
21.511484 -8.7393188 0.019981116 4289897610
18.585184 -7.6838346 0.02215091 4293845708
18.497128 -7.7806683 0.022181626 4294833642
18.467426 -7.9018846 0.022167664 4294571759
18.517626 -8.0581379 0.022092266 4294967033
18.744926 -8.2941971 0.021880731 4294704121
18.734724 -8.427516 0.021849316 4281612092
18.625362 -8.516118 0.021893298 4282665811
18.475719 -8.5851555 0.021968 4280493613
18.310562 -8.6454239 0.022054568 4288454050
18.395124 -8.8237762 0.021947753 4294769403
18.324455 -8.9285975 0.021960318 4292598488
18.221821 -9.0173607 0.021997321 4294303965
18.176872 -9.134387 0.021988943 4288177757
18.045658 -9.207572 0.022047587 4293707701
17.486229 -9.0578222 0.022442728 4294963933
17.409964 -9.1542416 0.022458784 4294506732
17.394051 -9.2825508 0.022426672 4288127395
17.420307 -9.4343395 0.022360349 4293918719
19.719234 -11.153411 0.020374862 4292006869
17.189905 7.4965549 -0.20583814 4288058242
17.21904 7.3838453 -0.20560567 4293781706
17.140554 7.2260051 -0.20387505 4293254325
17.211359 7.1317954 -0.20424959 4291740316
17.295544 7.0426464 -0.20481785 4291871649
17.35607 6.9434462 -0.20506324 4291938212
17.307142 6.8009839 -0.20379756 4291675039
17.392391 6.7115793 -0.20440458 4292596141
17.507118 6.6327205 -0.20542486 4293122232
17.622463 6.5530534 -0.20645806 4291608995
17.714943 6.4639931 -0.20718132 4290885272
17.833351 6.3834796 -0.20826618 4290687126
17.935398 6.2961254 -0.20913149 4291016088
18.001112 6.1953936 -0.20950602 4290160520
17.88056 6.031455 -0.20734921 4291410587
18.364405 6.0694089 -0.21343221 4290227593
18.475504 5.9806309 -0.2144396 4289635465
18.581436 5.8892074 -0.2153824 4287794043
18.705084 5.8023357 -0.21657059 4284635976
18.82645 5.7135873 -0.21773294 4291607976
18.938799 5.621006 -0.21877906 4292924606
19.108337 5.5439773 -0.22060007 4288452220
19.250702 5.4574413 -0.22205949 4283122977
19.369591 5.3629637 -0.22320893 4282134562
19.468739 5.2620134 -0.22410005 4291935152
19.563507 5.1590281 -0.22493955 4287065179
19.289743 4.960453 -0.2208713 4292723878
19.848425 4.9744706 -0.22791001 4293317297
19.922285 4.8632593 -0.22849119 4293318837
19.978991 4.7473989 -0.22885281 4292858284
19.93273 4.6073823 -0.22785836 4292133281
19.939161 4.4801688 -0.22757423 4292724137
20.004374 4.366055 -0.22807792 4292527526
20.135456 4.2653985 -0.22945982 4292330147
20.231771 4.1562557 -0.23038971 4292462248
20.340252 4.0486279 -0.23148748 4291608228
20.508062 3.9513636 -0.23337308 4288911233
20.712793 3.8591504 -0.23574945 4291872694
20.849253 3.7523525 -0.23723471 4286739812
4.3465304 0.75507504 -0.020597186 4291148973
21.115629 3.533344 -0.24014059 4292068527
21.263273 3.4240603 -0.24179372 4288253311
20.281891 3.1384943 -0.22869784 4288912017
20.298788 3.0136943 -0.228672 4287990915
20.286209 2.8847229 -0.22827163 4291476404
20.265877 2.7550771 -0.22778085 4292462774
20.193153 2.6191025 -0.2266185 4294569177
20.153273 2.4882898 -0.22589526 4281215270
3.8462915 0.45126721 -0.013635959 4281808166
3.8629012 0.42920282 -0.01381677 4282532418
3.8634732 0.40528396 -0.013790943 4291085498
3.8638973 0.38137427 -0.013765112 4291347116
2.8794513 0.26647687 -0.00096626952 4282332972
2.8411834 0.2453679 -0.00044966489 4292794319
19.611885 1.4491979 -0.21761671 4282993210
2.2935276 0.15567589 0.0066923723 4282925351
2.3203883 0.14319718 0.0063565802 4285688926
1.9548156 0.10866191 0.011096414 4293914595
1.817624 0.089879535 0.012878694 4286875518
1.7941655 0.077692062 0.013188656 4287272076
1.8365762 0.068232156 0.012646222 4284637794
1.8079765 0.056069199 0.013020759 4280688155
1.7742997 0.044136569 0.013459872 4287725940
1.6995564 0.03186027 0.014428504 4280816651
1.6907212 0.021319974 0.014544738 4282065695
1.6608233 0.010758168 0.014932191 4281935140
1.6578583 0.00056701928 0.014970938 4282328871
1.6598303 -0.0096174711 0.014945107 4282788139
1.6617398 -0.01982614 0.014919277 4284235067
1.6635863 -0.030058604 0.014893446 4285747009
1.6723671 -0.040485483 0.014777211 4286733132
1.6630923 -0.050471097 0.014893446 4293513920
20.430534 -0.74988306 -0.22767755 4294966260
20.600374 -0.88272285 -0.22993767 4282530876
20.737385 -1.0161083 -0.23178452 4282334528
20.964384 -1.1562204 -0.23480666 4281808443
21.152515 -1.2968303 -0.23733801 4281546812
21.352665 -1.4406672 -0.24003726 4283782234
21.580761 -1.5891385 -0.24311104 4283846746
21.740051 -1.7350521 -0.24530661 4283980903
21.969091 -1.8890631 -0.24841917 4285363586
22.185101 -2.044848 -0.25137672 4286417301
22.469673 -2.210207 -0.25523832 4285890441
22.634697 -2.3667574 -0.25756302 4279442729
22.950697 -2.5422616 -0.26186374 4278192667
22.908844 -2.6800153 -0.26152796 4280233547
22.792727 -2.8083017 -0.26023644 4281746526
22.721518 -2.9411697 -0.25953904 4281746012
22.61684 -3.0688329 -0.25841543 4280759380
22.526306 -3.1974304 -0.25748554 4280823879
22.426144 -3.3237138 -0.25643942 4280164658
22.346037 -3.4520948 -0.25566453 4280756015
22.239531 -3.5754914 -0.25455382 4281216047
22.180685 -3.7057858 -0.25407597 4280950825
22.217627 -3.8522353 -0.25486377 4280426790
22.198492 -3.989372 -0.25492835 4280361510
22.124443 -4.1163583 -0.25428259 4281149486
21.755104 -4.1859031 -0.24976233 4280952373
21.660358 -4.3056631 -0.24885827 4279637287
21.55615 -4.4226103 -0.24783799 4278980135
21.466 -4.5415459 -0.24701142 4278717481
21.38888 -4.6625237 -0.24636567 4279245114
21.301331 -4.7805371 -0.24559075 4279771464
21.218012 -4.898777 -0.24488044 4278522171
21.151558 -5.0203314 -0.24440256 4279641674
21.050409 -5.1329641 -0.2434727 4279510590
20.936069 -5.2413878 -0.2423749 4282074446
20.851219 -5.3563151 -0.24167749 4282795328
20.763813 -5.4698896 -0.24095425 4284900954
20.663252 -5.5792046 -0.2400631 4284243537
20.594896 -5.6965566 -0.23961106 4279966481
20.48259 -5.8010178 -0.23857787 4279241737
20.236288 -5.8656197 -0.23574945 4278913027
20.149107 -5.9746099 -0.23506495 4286347634
20.098671 -6.0940676 -0.23488414 4288585617
19.975899 -6.1909304 -0.23373473 4278650624
19.986151 -6.3287792 -0.23439339 4278321920
19.947895 -6.4516006 -0.23440629 4278321666
19.850014 -6.5547504 -0.23361847 4278321153
20.202095 -6.9471045 -0.23954651 4278192131
20.166636 -7.0735793 -0.23964983 4278651144
20.08143 -7.1823692 -0.23908156 4278847497
19.963707 -7.2787342 -0.23807418 4282270275
19.769638 -7.3457141 -0.23602068 4293916927
19.661539 -7.4431601 -0.23515537 4289442752
19.576315 -7.5485506 -0.23461294 4289901495
19.486814 -7.6517148 -0.23401883 4291676869
19.429285 -7.7670565 -0.23387676 4282199601
19.353477 -7.8748193 -0.23348933 4284894032
18.912395 -8.2419405 -0.23007974 4284507487
18.882492 -8.3671465 -0.23037678 4284442460
18.81439 -8.4754572 -0.23014432 4288521373
18.702936 -8.5636816 -0.22930485 4286151795
18.452005 -8.8631945 -0.22801334 4284707437
18.402666 -8.978879 -0.22809082 4285496173
18.335579 -9.0858545 -0.22792292 4281086250
18.269659 -9.193244 -0.22778085 4279636497
18.204002 -9.300622 -0.22765172 4282464317
18.535053 -9.9041548 -0.23505205 4286489526
18.42263 -10.136648 -0.23520702 4289052129
18.359213 -10.249009 -0.23519412 4281879912
18.29076 -10.358509 -0.23511663 4283062907
18.262405 -10.490965 -0.23564616 4278652708
16.433493 -9.5748768 -0.20927356 4284179553
16.381319 -9.6796007 -0.20937687 4290428087
16.894091 7.3711243 -0.42677149 4279768586
16.923382 7.260623 -0.42634431 4279439107
16.940905 7.1453786 -0.42561552 4294241497
16.969652 7.0351696 -0.42521343 4293713601
16.980099 6.9177103 -0.42433387 4291871138
16.996239 6.802989 -0.42363024 4293317557
17.025568 6.6938181 -0.42330354 4294633163
17.108284 6.6054311 -0.42443439 4294699724
17.209249 6.5233679 -0.42606786 4293581758
17.319223 6.4438004 -0.42795262 4291937190
17.432619 6.3644996 -0.4299379 4291345821
17.532515 6.2793288 -0.43157136 4290885274
17.858381 6.2726951 -0.43923602 4290227602
17.957027 6.183836 -0.44084436 4288648334
17.821301 6.0150223 -0.43624556 4291806131
18.089455 5.9821596 -0.4423773 4291936929
18.33029 5.9372954 -0.44778025 4290686602
18.332071 5.8138294 -0.44687557 4290621330
18.338758 5.6923447 -0.44612166 4290818963
18.357079 5.5747733 -0.44569448 4291542173
18.393814 5.4628854 -0.44576985 4291016342
18.47019 5.3624654 -0.4469007 4292332202
18.56814 5.26759 -0.44860956 4284240441
18.709936 5.1839957 -0.4514744 4284239427
18.881317 5.1069512 -0.45511824 4293647577
19.009922 5.0167708 -0.45765638 4282461735
19.138126 4.9252038 -0.46019453 4287593061
19.270769 4.8334675 -0.46285832 4291342484
19.383579 4.7355418 -0.46501949 4291408782
19.489101 4.6347938 -0.46700481 4291671700
19.630152 4.5412669 -0.46991989 4292987563
18.637468 4.191247 -0.44363379 4294961613
18.593494 4.0616593 -0.44184956 4292593323
18.520271 3.9267545 -0.43933654 4290422930
18.480371 3.7999511 -0.4377031 4289173635
18.470985 3.6800382 -0.43687379 4288121466
18.452974 3.5588689 -0.43584347 4288319872
18.398792 3.4314585 -0.43390846 4288648061
4.4293885 0.79710728 -0.076558486 4287267699
18.209051 3.1653407 -0.42802802 4285028424
18.159113 3.0419869 -0.42626891 4286738532
18.127104 2.9223893 -0.42498726 4288843649
18.094313 2.8032997 -0.42370564 4292592818
18.081507 2.6878107 -0.42295173 4292789166
18.018484 2.5655358 -0.42094132 4294961360
17.9279 2.4404933 -0.41825241 4293382839
17.902882 2.3252907 -0.41724721 4292199339
17.865221 2.2090147 -0.41594043 4292661691
3.8623047 0.45260394 -0.061178867 4283714651
3.7358475 0.41452453 -0.057911951 4279111190
3.784054 0.39639905 -0.059067938 4281151268
3.8550587 0.37995952 -0.060801912 4291938742
17.586134 1.6285981 -0.4073962 4292855976
2.742357 0.21906598 -0.032580819 4293912289
2.3169615 0.15631354 -0.021800004 4283384629
2.2989192 0.14092223 -0.021322533 4284636240
1.9004848 0.10459448 -0.011270497 4294638320
1.8162215 0.088730447 -0.0091344379 4286480507
1.8097407 0.077281587 -0.008958526 4287271305
1.7732179 0.064800628 -0.0080287121 4282532919
1.7585942 0.053453606 -0.0076517612 4283714877
1.7319059 0.041989658 -0.006973248 4288252284
1.7011462 0.030780172 -0.0061942153 4280685327
1.6773126 0.020038236 -0.0055910945 4281869349
1.6674073 0.0096810153 -0.0053397939 4281739044
1.6664356 -0.00055055605 -0.0053146631 4282132519
1.6624022 -0.010752549 -0.0052141435 4282394151
1.6613053 -0.020940758 -0.0051890127 4283972154
1.6611454 -0.03113394 -0.0051890127 4285944907
1.6719165 -0.041591745 -0.0054654442 4287194453
20.429888 -0.74605936 -0.47733328 4292993505
20.551767 -0.87680519 -0.48052475 4294770429
20.743704 -1.0125309 -0.48550054 4294705151
20.912779 -1.149439 -0.48992345 4294573567
21.210669 -1.2963808 -0.49761322 4294705151
21.315023 -1.4340794 -0.50045294 4294244853
21.499243 -1.5790342 -0.50532818 4294901753
21.822987 -1.7374829 -0.51374674 4294637554
21.95435 -1.8835658 -0.51734036 4294834933
22.208174 -2.0426731 -0.52405006 4286809215
22.497675 -2.2085769 -0.53168964 4282006326
22.64875 -2.363796 -0.53586119 4281216556
22.742155 -2.6560423 -0.53900248 4280230952
22.719746 -2.9364607 -0.53930402 4280362286
22.604219 -3.0626626 -0.53684127 4280691253
22.526602 -3.1930273 -0.53535861 4280560958
22.469007 -3.3256273 -0.53440368 4279310881
22.400755 -3.4561176 -0.5331974 4283784544
22.374191 -3.5927088 -0.53307176 4284572781
22.264952 -3.7154512 -0.5308603 4283718497
22.292959 -3.8608646 -0.53216708 4281744444
21.810699 -4.1922636 -0.52173811 4280033850
21.742401 -4.3176417 -0.52065748 4280099905
21.556849 -4.4184599 -0.51658642 4279968835
21.48336 -4.5409322 -0.5154053 4279706176
21.413092 -4.6635213 -0.51432472 4280955465
21.342127 -4.785419 -0.51324415 4280625987
21.264631 -4.9052739 -0.51201278 4279442226
21.17577 -5.021821 -0.51050496 4280691780
21.087254 -5.1377001 -0.5090223 4280626246
20.967079 -5.2449207 -0.50673544 4279245365
20.895769 -5.363534 -0.50573021 4280428608
20.771589 -5.467731 -0.50336802 4280361784
20.690353 -5.5823231 -0.50213665 4280755766
20.614279 -5.697722 -0.50105602 4280098339
20.551035 -5.8162084 -0.50032729 4280559657
20.438143 -5.9199514 -0.49831685 4279638557
20.376513 -6.0378628 -0.49766353 4279835934
20.058327 -6.2123508 -0.49128047 4279901725
20.039846 -6.3416419 -0.49180821 4279112213
19.959656 -6.4512668 -0.49072757 4281677635
19.89786 -6.5664115 -0.49014959 4281019967
19.851509 -6.6864643 -0.48999885 4280692293
19.742039 -6.7847552 -0.48818943 4283652724
19.659468 -6.8915443 -0.48710886 4278453789
19.578217 -6.9982491 -0.48607853 4278652187
19.509546 -7.1090074 -0.48539999 4278850592
19.426197 -7.2139678 -0.48434457 4280758082
19.349777 -7.3210025 -0.48349014 4278915630
19.272778 -7.427372 -0.48263571 4279574592
19.191477 -7.5316119 -0.48168078 4279837760
19.103127 -7.6325383 -0.4805499 4279969597
19.031858 -7.7398195 -0.47989652 4279772472
18.961838 -7.8472772 -0.47929338 4279377203
18.863579 -7.9425321 -0.47793636 4279968309
18.780487 -8.0435667 -0.47700658 4279639084
18.700533 -8.1454773 -0.47617725 4282006086
18.653858 -8.2616882 -0.4762778 4280492835
18.574554 -8.3632689 -0.47549877 4280163611
18.621975 -8.5224228 -0.47823796 4278979344
18.507853 -8.7464571 -0.47801176 4286679422
18.525936 -8.8944635 -0.48002216 4284837734
18.360489 -8.9540787 -0.47693118 4282008386
17.933477 -9.158226 -0.46961829 4289113022
17.853868 -9.2561293 -0.4689649 4280757812
17.787891 -9.3608503 -0.46871361 4283129191
17.724829 -9.4669924 -0.46856287 4286026395
17.641796 -9.5622349 -0.46785918 4290827223
17.555637 -9.6553698 -0.46708015 4284967786
17.482094 -9.7551155 -0.46667811 4286347875
17.410601 -9.8557978 -0.46635142 4279899144
17.336794 -9.9549761 -0.46597448 4280096270
17.255514 -10.049595 -0.46539643 4279832847
16.909946 7.3744702 -0.65580571 4284505155
16.930079 7.2599411 -0.65479279 4285031499
16.952206 7.1466064 -0.6538924 4284965454
16.9265 7.0137672 -0.6510787 4288781195
16.91091 6.886035 -0.6487152 4291610034
16.815527 6.7272105 -0.64316291 4292662194
16.819284 6.6092877 -0.64166224 4294175427
16.872574 6.5109982 -0.64218748 4293911234
16.947718 6.4208002 -0.6436131 4292398258
17.061728 6.3445525 -0.64661437 4291411867
17.179192 6.2685156 -0.64976567 4291281812
17.298244 6.1919494 -0.65299201 4289703039
17.406628 6.1105156 -0.65580571 4288255094
16.36471 5.6322355 -0.61296272 4290753964
16.4018 5.5326753 -0.61307526 4292527538
17.741026 5.8633966 -0.66469693 4291341965
17.859383 5.7812023 -0.66796082 4289963139
18.008831 5.7077379 -0.6724627 4290031246
17.252285 5.3517075 -0.64136213 4288845438
17.148056 5.2042522 -0.63599735 4291409825
17.135599 5.0858574 -0.63427168 4294699477
17.095465 4.9600163 -0.63149548 4294832603
17.08135 4.8424907 -0.62976974 4293714120
17.059698 4.7234588 -0.62778145 4289569927
17.002502 4.5954895 -0.62444252 4288911997
16.989798 4.4803767 -0.62286687 4289241225
16.885345 4.3422003 -0.61776471 4288056435
16.823463 4.2164068 -0.6143508 4286739286
16.794653 4.0998306 -0.61224991 4288382830
16.77866 3.9870012 -0.61067426 4288055673
16.796967 3.8826239 -0.61044914 4288647810
16.678123 3.7475049 -0.60497183 4293449406
16.655893 3.6352983 -0.60324609 4294436305
16.564482 3.5090108 -0.5988943 4294173905
16.514246 3.3926287 -0.59615564 4293712839
16.483789 3.2810924 -0.59420478 4292329900
16.437866 3.1672223 -0.59169126 4293645757
4.5415406 0.84647393 -0.13666245 4288450941
16.299448 2.9335852 -0.58497596 4294171314
16.270868 2.8254838 -0.58321267 4294105017
16.252417 2.7196579 -0.58186209 4293908152
16.218483 2.6117818 -0.57994884 4294104242
16.18285 2.5042729 -0.57799798 4294169004
16.178144 2.4019947 -0.57724768 4294038447
16.096611 2.2890375 -0.57360864 4293972915
16.116293 2.1910353 -0.57383376 4293907639
16.154209 2.095319 -0.57477164 4293447351
16.258997 2.0075455 -0.5782606 4292988341
3.7406943 0.43888867 -0.10462397 4293849845
3.7592077 0.41769195 -0.10522423 4283849556
3.7944973 0.39805523 -0.10646225 4293650900
16.989563 1.5703874 -0.60377133 4294307290
16.999876 1.4661975 -0.60380882 4293847258
2.5789042 0.20681937 -0.060355358 4288189328
2.5611894 0.18959282 -0.059642561 4294111210
2.4217255 0.16435586 -0.054352835 4284571472
2.3418984 0.14452103 -0.051314063 4282795064
2.3197923 0.1288776 -0.050451197 4287267445
1.8135115 0.089677051 -0.031393185 4287138688
1.8140277 0.078547865 -0.031393185 4284573279
1.7935044 0.066641025 -0.030605353 4287336071
1.7918819 0.055573512 -0.030530319 4288124033
1.7722093 0.044085026 -0.029780008 4289505423
1.695514 0.03178541 -0.026891291 4287990915
1.6956772 0.021381335 -0.026891291 4281606953
1.6807872 0.010882845 -0.026328556 4281739044
1.6858188 0.0005700693 -0.026516132 4282132519
1.6777964 -0.0097257514 -0.026216008 4282525737
1.6747074 -0.019983871 -0.026103459 4283314224
1.6745533 -0.030259306 -0.026103459 4285613119
1.676334 -0.040582433 -0.026178494 4287783261
1.7889212 -0.054318964 -0.030417778 4286471761
20.503746 -0.75257158 -0.7335009 4294372830
20.584602 -0.88204682 -0.73672724 4293846232
20.621721 -1.0104387 -0.73834038 4289568919
20.894512 -1.1523654 -0.7488448 4291542199
21.103489 -1.2938237 -0.75698572 4288779396
