# .PCD v0.7 - Point Cloud Data file format
VERSION 0.7
FIELDS x y z rgb
SIZE 4 4 4 4
TYPE F F F U
COUNT 1 1 1 1
WIDTH 1137
HEIGHT 1
VIEWPOINT 0 0 0 1 0 0 0
POINTS 1137
DATA ascii
38.111694 -8.0547352 3.8609259 4280755481
37.990566 -8.2729759 3.8537898 4282136369
37.807018 -8.4763193 3.8404949 4282531642
37.645679 -8.6830912 3.8295462 4280821790
37.566521 -8.9079475 3.8270044 4279506441
37.40189 -9.1116695 3.815958 4279374855
37.189835 -9.3021164 3.8002191 4278848000
37.051086 -9.5093536 3.7920074 4281677360
36.954502 -9.7266388 3.7881951 4281940532
36.799 -9.9275436 3.7785172 4282664255
36.652981 -10.129825 3.7699146 4283519822
36.404358 -10.301966 3.7509499 4283255879
36.297443 -10.512687 3.7465508 4282662715
36.117748 -10.701283 3.7348199 4283782477
36.071407 -10.928756 3.7368729 4283387976
35.898151 -11.117205 3.7260218 4283784015
35.526577 -11.241495 3.6948376 4283849040
35.43515 -11.452231 3.692589 4283783764
35.246075 -11.630464 3.6803696 4283256650
35.255157 -11.873826 3.6887765 4283914071
35.158108 -12.08184 3.6863327 4283585108
34.839127 -12.211754 3.6609159 4283848280
19.890831 -7.1099734 2.1095188 4283584593
19.829062 -7.2254143 2.1076612 4283320905
19.802082 -7.3535295 2.1095188 4282860354
34.3367 -13.231751 3.6491852 4283585357
20.309103 -7.9701467 2.177655 4282599492
20.331907 -8.1234093 2.1852801 4283717970
33.53492 -14.118932 3.6087139 4282861896
33.455887 -14.327958 3.6095936 4283125584
33.30986 -14.507936 3.603435 4282928203
33.161068 -14.685855 3.5970809 4284112990
33.055813 -14.882514 3.5955167 4283849559
32.900524 -15.056073 3.5886738 4283389267
32.770527 -15.240458 3.5846658 4282928981
32.631405 -15.419989 3.579778 4281416259
32.389034 -15.549289 3.563746 4281812044
32.20356 -15.704113 3.5539703 4282140491
32.060223 -15.878448 3.5488868 4282995289
31.968414 -16.077997 3.5495713 4282533707
31.85232 -16.265249 3.5477138 4282468167
31.794329 -16.48237 3.5524061 4282927178
31.692596 -16.677147 3.5524061 4282795079
31.566845 -16.859104 3.5498645 4282861383
31.469807 -17.056273 3.5506465 4282860870
31.337524 -17.23418 3.547616 4282335041
31.18947 -17.402864 3.5429237 4282796619
31.066513 -17.585089 3.5411642 4283059021
30.944218 -17.76745 3.5396001 4282599238
30.779573 -17.924932 3.5333436 4283191375
30.663868 -18.110418 3.532757 4282402110
18.488169 8.0626974 1.7675276 4284312681
18.608717 7.9797301 1.7742037 4284970617
18.737202 7.8990703 1.7816501 4293917941
18.640806 7.7240753 1.7682123 4281284922
18.956551 7.1818166 1.7762579 4283391579
19.286276 6.9035234 1.7945743 4283252291
19.496548 6.8441234 1.809895 4283248431
19.592819 6.7431712 1.8148593 4282658865
19.765053 6.6670871 1.8267564 4281742904
19.922894 6.5844522 1.8373697 4278258185
20.016001 6.4792657 1.8421627 4279374606
20.145609 6.384923 1.8502939 4280229661
20.285278 6.2924795 1.8593665 4281282610
20.417892 6.1965356 1.8678401 4283717470
20.563461 6.103169 1.8775117 4282073158
20.68951 6.002696 1.8854717 4283785054
20.854403 5.912046 1.8969408 4283982172
20.953659 5.8015194 1.9025899 4284374612
21.043686 5.6876583 1.9074686 4291541421
18.389338 4.8494167 1.6685846 4283253561
18.423573 4.7377305 1.6690125 4280690212
21.605806 5.414876 1.9482954 4280883741
21.690891 5.2949605 1.9529172 4289632664
21.867405 5.1960859 1.9656703 4281474843
22.009542 5.0873895 1.9754276 4281672997
22.143385 4.9753966 1.9845003 4280884772
22.325348 4.8725734 1.9978524 4292334546
22.510778 4.7685289 2.0115471 4289178524
22.657705 4.654573 2.0219035 4284441175
22.782578 4.5347137 2.0303769 4280756510
22.893133 4.4108577 2.0376523 4279901458
23.108805 4.3055234 2.0541713 4280294417
23.301487 4.1936479 2.0687218 4281674789
23.448503 4.0717282 2.079335 4280294678
23.642065 3.9560537 2.0940566 4283191110
23.796721 3.831979 2.1054401 4288981924
23.982246 3.7110298 2.1195626 4288718498
24.111004 3.5796077 2.1288066 4279770652
21.19301 3.013654 1.8737458 4282860094
21.163715 2.8771183 1.8696374 4287203719
24.840733 3.2218156 2.186666 4283521372
24.89761 3.0739737 2.1899183 4286022278
25.023863 2.9337909 2.1992478 4285099123
21.929045 2.4346955 1.9302357 4285690231
21.93961 2.2996802 1.9298934 4285887863
25.751827 2.5395582 2.2577918 4286019699
25.867128 2.3907595 2.2664366 4285295976
26.015316 2.2435517 2.2779913 4285032803
26.27887 2.1039159 2.2995603 4285164389
26.485041 1.956946 2.3162503 4284835933
26.600925 1.8014671 2.3252375 4286347626
26.584625 1.6365604 2.3229265 4282528556
26.780199 1.4837133 2.338932 4282527788
26.947021 1.3271556 2.352541 4283778108
27.137812 1.1696783 2.3682897 4287198832
1.661781 0.061774969 0.17767823 4287926918
1.6631246 0.051607981 0.17776382 4291282111
1.6614178 0.041353155 0.17759264 4279636499
1.6526749 0.030992076 0.1768223 4281610037
1.6548265 0.02087554 0.17699349 4281611575
1.6489456 0.010683991 0.17647994 4281808954
1.6559544 0.00056681159 0.17707908 4281874747
1.6529375 -0.0095759295 0.1768223 4283717205
1.6548404 -0.019742221 0.17699349 4287072387
1.6497072 -0.029804604 0.17656553 4289966247
29.865057 -0.91288882 2.6016102 4286538320
29.995298 -1.1011294 2.6133361 4283910713
30.406054 -1.3030787 2.6492844 4283254583
30.636318 -1.5013291 2.669826 4281806373
30.787689 -1.698173 2.6836917 4292859086
27.755512 -1.7017715 2.423667 4283320897
31.603527 -2.1324797 2.7559304 4282860603
31.753796 -2.3384309 2.7700529 4283254850
32.112282 -2.5630343 2.8022351 4283254336
32.479122 -2.7929778 2.835273 4282465594
32.755039 -3.0192866 2.8606079 4281151527
33.110699 -3.2570846 2.8929613 4293189844
33.318993 -3.4841256 2.9127328 4284172346
33.677254 -3.7306299 2.9455996 4293780944
30.579103 -3.5774591 2.6796689 4294441451
30.683151 -3.7806189 2.6906247 4279046403
31.360916 -4.059638 2.751394 4294240727
31.354174 -4.2545347 2.7530203 4292264104
35.846363 -5.0883379 3.1451118 4293384630
35.882473 -5.3182712 3.1510177 4293912001
35.958458 -5.5552282 3.1605182 4293582793
36.147976 -5.8118229 3.180033 4281608220
34.116787 -6.131464 3.0126173 4279835932
37.59499 -6.9950032 3.3198884 4287009165
37.546474 -7.2246084 3.3194604 4288717473
37.384171 -7.431541 3.3091896 4289572780
37.3447 -7.6621885 3.3097885 4289902522
37.08839 -7.8470502 3.2914722 4290362044
36.941219 -8.0530376 3.2828274 4290099901
36.837646 -8.2675533 3.27812 4288915627
36.618275 -8.4546509 3.2633128 4289376432
36.553108 -8.6761856 3.2622001 4289638321
36.336567 -8.860652 3.2478209 4289639093
36.246719 -9.0747309 3.2447395 4289244846
36.044643 -9.259532 3.2318153 4290428867
35.928375 -9.4650402 3.2265942 4289639350
35.803257 -9.6673927 3.2206886 4288982190
35.676044 -9.8683004 3.2146971 4288587433
35.4902 -10.051722 3.2035704 4286087298
35.396282 -10.260142 3.2007458 4285955966
35.210388 -10.44088 3.1897902 4286349954
35.125641 -10.65066 3.1879928 4287204750
35.003479 -10.848582 3.1829431 4283190609
34.91346 -11.055936 3.1808889 4279374613
20.654694 -6.6802101 1.8996798 4282731088
34.710651 -11.698933 3.181488 4283586394
34.534573 -11.876052 3.1720729 4282994511
34.38208 -12.060026 3.1648834 4283322963
34.29805 -12.267409 3.1640275 4285625977
34.189373 -12.465681 3.1610317 4287600021
34.06461 -12.657529 3.1566665 4287995295
33.938782 -12.848316 3.1523015 4285758587
33.788654 -13.029075 3.1457965 4294245110
33.66449 -13.219038 3.1417737 4288323483
19.699181 -7.8749557 1.8573123 4286546555
33.35577 -13.572576 3.1284215 4286875532
33.186256 -13.741537 3.1204617 4287139217
33.069176 -13.931367 3.117466 4286876563
32.984905 -14.134799 3.1176372 4286613389
32.871067 -14.32538 3.115155 4287139735
32.702389 -14.491282 3.1076231 4286481805
32.577427 -14.675707 3.104285 4286218893
32.445099 -14.856241 3.1003478 4285956233
32.308163 -15.034022 3.0960684 4285495682
32.127941 -15.190668 3.0877659 4285561475
31.905699 -15.325825 3.0755265 4285627520
31.744801 -15.488975 3.0691929 4285824897
31.630417 -15.674175 3.0673954 4286351241
31.522078 -15.862139 3.0662827 4286022276
31.405523 -16.045734 3.0644853 4285956226
31.343622 -16.257402 3.0680802 4286547079
31.216831 -16.435493 3.0655124 4286481029
31.127699 -16.633301 3.0667107 4285823356
30.996151 -16.808308 3.0638862 4285954685
30.886324 -16.994818 3.063287 4285824639
30.742317 -17.162159 3.0594354 4286286218
30.640766 -17.352924 3.0598633 4285364088
30.487926 -17.514299 3.0553272 4285759874
30.376446 -17.699032 3.0549848 4286023045
30.219238 -17.856701 3.0501916 4285694081
18.004662 7.8557653 1.4810209 4280953398
18.137756 7.7817163 1.4878483 4285033841
18.246729 7.6962504 1.4927669 4287469722
18.359016 7.6112676 1.4979792 4281680458
18.460789 7.5210557 1.5023838 4286612624
18.603804 7.4465594 1.5100921 4287534744
18.70669 7.354897 1.5146437 4287206540
18.843569 7.2755437 1.5219115 4286744458
18.945675 7.1817055 1.526463 4286023045
19.064156 7.0931478 1.5323361 4286022531
19.188824 7.0057998 1.5387229 4285559925
19.305618 6.9144974 1.5445225 4285757302
19.434248 6.8263216 1.5512764 4280690725
19.533287 6.726759 1.5557545 4279045387
19.700811 6.6495233 1.5655918 4281806377
19.941027 6.5945988 1.5810817 4279834127
20.034246 6.4893308 1.5851929 4281547055
20.159243 6.3934202 1.5918 4281742640
20.287621 6.2974014 1.5987008 4282664002
20.42226 6.2020755 1.6061153 4283126093
20.574652 6.1107297 1.6149249 4280824610
20.714237 6.0141301 1.62278 4280954914
20.821747 5.9070625 1.6282125 4281085732
20.951784 5.805294 1.6354069 4281808687
21.072691 5.6998067 1.6419406 4282135340
18.40634 4.8574457 1.4363128 4286016875
18.449318 4.7478952 1.4373406 4282597435
21.603527 5.4187131 1.6745356 4280623645
21.707092 5.3033366 1.6798947 4292991185
21.833334 5.1924314 1.6870157 4280951319
21.994982 5.0884953 1.6968529 4283451966
22.157145 4.9829884 1.7067636 4283452480
22.28863 4.8690815 1.7143985 4282992183
22.451746 4.7605767 1.724456 4281938212
22.632921 4.6540704 1.7359083 4283583548
22.819498 4.5466881 1.7478011 4283189044
22.925308 4.4216981 1.753674 4283517496
22.997105 4.289362 1.757051 4283320117
23.089731 4.160202 1.762043 4283320117
22.918314 3.9842751 1.7473606 4283254064
23.009211 3.854784 1.7523526 4283583542
23.090521 3.7228987 1.7566839 4284110143
23.312996 3.6121564 1.7715867 4283846460
23.4452 3.4854727 1.7798088 4282858026
23.542171 3.3523796 1.7854615 4286082668
21.19956 2.8860741 1.6099328 4286676346
21.230719 2.7577412 1.6109606 4285625449
24.142277 2.9855788 1.8256915 4284705119
3.3806739 0.3960174 0.28557569 4283060304
3.2531955 0.36081818 0.27595869 4293586923
3.0579715 0.32011268 0.26134965 4288520084
2.8306191 0.2786774 0.24439141 4287006845
2.6555135 0.24492258 0.23132403 4284638307
2.450299 0.2107497 0.21605428 4285825920
2.3779826 0.18980311 0.21062177 4286809992
2.2060468 0.16237865 0.19784804 4287007373
2.113471 0.14248222 0.19094729 4284900968
2.0326827 0.12446652 0.18492748 4285757815
1.9826243 0.10916568 0.18118346 4284903789
1.9125351 0.093497835 0.1759712 4292599258
1.8722215 0.079990104 0.17296128 4294769405
1.6843175 0.061493207 0.15908636 4294572537
1.7006122 0.051652662 0.16026096 4293388263
1.6799603 0.04069519 0.1587193 4280098077
1.6712043 0.030217836 0.1580586 4282334008
1.6564 0.01977383 0.1569574 4281544492
1.6445227 0.009532108 0.15607646 4282005043
1.6505342 -0.00055645366 0.15651694 4282728768
1.6465104 -0.010660931 0.15622328 4287662730
1.6504029 -0.020811003 0.15651694 4291936967
1.6502441 -0.030937292 0.15651694 4293448155
29.216442 -1.0664243 2.1870999 4284768341
29.390694 -1.2533993 2.2004609 4288912785
29.691244 -1.448769 2.2232189 4281016346
29.915812 -1.6437728 2.2404706 4293188562
27.757982 -1.6961862 2.0821204 4285097818
30.619778 -2.0595939 2.2940617 4285821539
30.887047 -2.2680199 2.314764 4285229656
31.112143 -2.4765594 2.3324564 4285953893
31.528601 -2.704474 2.3643906 4285427298
31.73983 -2.9188762 2.3812754 4285690721
32.092533 -3.1499951 2.4087317 4283846460
32.383068 -3.3792388 2.4317095 4282856745
32.608547 -3.6051538 2.4499893 4282530600
30.603678 -3.5737777 2.3030913 4294374629
30.594042 -3.7630734 2.3040457 4279701765
31.349026 -4.2470465 2.36373 4286608978
34.691521 -4.9167023 2.6142125 4293451963
35.029675 -5.1840649 2.6416688 4293518275
35.450603 -5.4688349 2.6754384 4294110159
35.6852 -5.729404 2.6954799 4293978325
35.704456 -5.9574461 2.6995909 4281148960
35.879494 -6.2131619 2.7154481 4285426283
34.163109 -6.1321354 2.5899866 4287203721
36.59771 -6.8011045 2.7751322 4286151542
36.79034 -7.070703 2.7927511 4286940547
36.73159 -7.2933984 2.7916501 4287203719
36.598217 -7.5006237 2.7850428 4286874756
36.531017 -7.720715 2.7835011 4286743170
36.384533 -7.9232898 2.7760866 4287006340
36.239864 -8.1250143 2.768892 4286808961
36.076599 -8.3212271 2.7603762 4286743168
35.921997 -8.5180435 2.7525947 4286743168
35.794445 -8.7201233 2.7469418 4286546302
35.614491 -8.9081345 2.7373984 4286481025
35.480915 -9.1064129 2.731452 4286415232
35.370361 -9.3097343 2.7273407 4286612611
35.254799 -9.5110044 2.7229362 4286875783
35.071774 -9.6928768 2.7134659 4286152573
34.929108 -9.8845387 2.7071524 4286481540
34.773926 -10.071487 2.6999581 4286415232
34.610115 -10.254639 2.6921763 4286283397
34.504543 -10.454087 2.6889462 4286876045
34.369251 -10.643775 2.6835136 4278519821
34.275719 -10.845737 2.6813848 4287665563
34.148743 -11.036525 2.6767597 4286153091
33.977146 -11.211789 2.6687579 4286021506
33.87936 -11.410508 2.6665554 4285889920
33.711559 -11.584793 2.658994 4286218885
33.592785 -11.774932 2.6553233 4286350724
33.49173 -11.970763 2.653121 4286548362
33.386726 -12.164774 2.6506984 4286351496
33.299301 -12.364889 2.649744 4286285703
33.268509 -12.586267 2.6533413 4285825150
33.036179 -12.730638 2.6411548 4286021765
33.074417 -12.979004 2.6504047 4285757829
33.023792 -13.19354 2.6527541 4288652204
32.886784 -13.373383 2.6483493 4286679435
32.615414 -13.731833 2.6399803 4286284426
32.470032 -13.905788 2.6351349 4286613391
32.355755 -14.092415 2.6328592 4286481805
32.224903 -14.271297 2.6293354 4286416012
32.102173 -14.4532 2.6265457 4285824388
31.990215 -14.639529 2.6247106 4285890694
31.860899 -14.81746 2.6215537 4285430141
31.61429 -14.939392 2.6089268 4285627520
31.415039 -15.081732 2.6001909 4285890433
31.293221 -15.260221 2.5978415 4285956223
31.139118 -15.422292 2.5929229 4286153602
30.998463 -15.590215 2.589179 4285824637
31.018576 -15.839538 2.5987959 4285824637
30.927885 -16.033237 2.5993834 4285824639
30.788324 -16.201344 2.5960064 4285889919
30.679539 -16.385254 2.5952721 4286021505
30.599468 -16.584597 2.597034 4285955713
30.43858 -16.739841 2.5921154 4285824640
30.316133 -16.915604 2.5905004 4285759104
30.208298 -17.099337 2.5902066 4285561727
30.064756 -17.262522 2.5869765 4285890694
29.952234 -17.443155 2.5864627 4285890694
29.802565 -17.601763 2.5828655 4285825152
17.826944 7.7780533 1.221415 4292929254
18.145855 7.7850051 1.2394338 4294507257
18.251223 7.6979547 1.243269 4294637817
18.387552 7.6228991 1.2491736 4287926933
18.481121 7.5291367 1.2522783 4286020474
18.615005 7.4508314 1.2580614 4285165165
18.749552 7.3715305 1.2639053 4284835432
18.848438 7.2771978 1.267436 4283388754
18.967403 7.1897101 1.272306 4284441957
19.077581 7.0979042 1.276628 4283324246
19.204222 7.0111761 1.2820458 4283390035
19.345549 6.9285455 1.2884376 4283650899
19.419718 6.8209586 1.2905073 4283586644
19.497068 6.7140217 1.2928207 4284638043
19.539789 6.594902 1.2929423 4282530860
19.532503 6.4592161 1.2898986 4283254326
19.54233 6.329711 1.2880116 4283254583
19.613152 6.2199407 1.2900813 4283190591
19.711002 6.1181197 1.2939165 4282795831
19.831264 6.0222917 1.2992125 4282861624
19.993189 5.9377198 1.3071871 4282993208
20.150026 5.8499947 1.3148572 4282796342
20.290211 5.7559366 1.3214924 4282730297
20.434805 5.6617098 1.3284321 4283057974
20.50481 5.5458593 1.3306844 4282727979
18.426788 4.8627291 1.1974914 4287004524
18.476578 4.7547965 1.1987698 4283516731
21.0236 5.2728701 1.3571038 4294043611
21.07398 5.1482725 1.3582606 4281345814
21.233355 5.0493479 1.3662961 4283912002
21.399109 4.9502344 1.3747575 4283451966
21.525492 4.840517 1.380784 4282991930
21.675705 4.7347589 1.3883324 4283057208
21.853745 4.6333418 1.3976462 4282991413
21.996155 4.5226803 1.4047685 4283188792
22.123339 4.4075203 1.4109778 4282860343
22.29306 4.299284 1.4198654 4283058235
22.451487 4.1871181 1.4280834 4283124026
22.628036 4.0765305 1.437458 4282531891
22.740143 3.9528224 1.4428759 4282597685
22.989407 3.8509762 1.4568162 4281873451
23.169287 3.7350996 1.466495 4282398512
23.312105 3.6115057 1.4739218 4283056955
23.462175 3.4874735 1.4818354 4283845447
23.601715 3.360328 1.4891403 4287201391
3.8097043 0.51890725 0.26970574 4281873461
3.7940094 0.4930793 0.26854914 4284045655
3.7930012 0.46930054 0.26830566 4285625970
3.2813053 0.38561496 0.23671186 4285166448
3.0524659 0.33977428 0.22252814 4285033581
2.8212111 0.29654893 0.20822267 4285689971
2.6620612 0.26333776 0.19836102 4285755762
2.4221106 0.22463776 0.18356857 4286744451
2.3319547 0.20186709 0.17796813 4286151542
2.2207203 0.17853537 0.17108934 4285889142
2.1282041 0.15797715 0.16536714 4285757302
2.0235729 0.13775003 0.15891446 4285230442
1.9078189 0.11813673 0.15179217 4286414203
1.8965486 0.10576385 0.15106168 4281347366
1.8732358 0.092942625 0.14960068 4282662450
1.8618042 0.080929212 0.1488702 4282726701
1.8532884 0.069170684 0.14832233 4291017908
1.799804 0.056129169 0.14503512 4294901503
1.6893547 0.042334281 0.13827807 4294770429
1.6835947 0.03185587 0.13791281 4281609511
1.6897467 0.021600116 0.13827807 4281476383
1.6579075 0.011026574 0.1363301 4281541665
1.649959 0.00085137191 0.1358431 4281803554
1.6529274 -0.0092901262 0.13602571 4282262565
1.6548355 -0.019456055 0.13614747 4284035890
1.6596749 -0.029700017 0.13645184 4286204480
1.7063605 -0.041021027 0.13931292 4287716680
29.10549 -1.0633692 1.81147 4293518792
29.118364 -1.2427886 1.8126874 4293649869
29.066324 -1.4192897 1.810009 4281214236
29.120855 -1.6011184 1.813905 4293782245
27.836231 -1.701848 1.7360466 4293979871
29.728415 -2.0007224 1.8523774 4294505954
29.903723 -2.1969194 1.8638828 4288452481
30.279718 -2.4114308 1.8877454 4291544493
30.624357 -2.6280773 1.9097819 4293123263
30.802467 -2.8338609 1.9217134 4293780926
30.994101 -3.0433917 1.9345579 4293386171
31.456324 -3.2837791 1.964082 4294965727
31.704443 -3.5064685 1.9805789 4280625165
30.701834 -3.5863895 1.9203742 4294703846
31.433769 -4.2597513 1.969804 4292857781
33.663246 -4.7724328 2.1087801 4292332718
34.009518 -5.0345902 2.1319733 4285690195
34.350876 -5.3007188 2.1549838 4293848788
34.479321 -5.5373507 2.1649671 4293190094
34.584499 -5.7721415 2.1736114 4279966481
34.447136 -5.9666924 2.1673412 4294307045
34.212402 -6.1424875 2.1551056 4293647834
35.333027 -6.5677357 2.2269981 4286411885
35.679241 -6.8588452 2.2510436 4286149996
36.033966 -7.1565866 2.2757585 4286216048
35.994267 -7.3785553 2.2760627 4286611576
35.890697 -7.5870919 2.2724712 4286808955
35.7869 -7.7948484 2.2689404 4285954935
35.611782 -7.9858923 2.2610269 4285954935
35.630196 -8.2199593 2.2652881 4285954935
35.311035 -8.3748493 2.2484868 4285954935
35.214375 -8.5804863 2.2456865 4285625202
35.075855 -8.7750769 2.2403295 4286217339
34.892765 -8.9571238 2.2322333 4286348925
34.790817 -9.1588554 2.2293112 4285822581
34.644341 -9.3479729 2.22365 4285034862
34.485313 -9.532445 2.2172582 4285429879
34.357029 -9.7242918 2.2128751 4284903535
34.270824 -9.9274197 2.2112317 4285495674
34.082943 -10.100079 2.2031963 4284048228
33.948685 -10.287308 2.1986306 4278784276
33.772415 -10.46057 2.1914475 4287271832
33.645741 -10.64802 2.1874907 4286087558
33.575024 -10.85273 2.1871862 4285692804
33.444298 -11.03758 2.1831076 4285165175
33.33905 -11.230154 2.1807337 4285361525
33.266685 -11.433535 2.1805511 4286282880
33.096996 -11.602766 2.1741593 4286547072
32.983826 -11.790843 2.1714807 4288060572
32.999947 -12.025474 2.1772637 4287205780
32.821678 -12.189157 2.1705067 4285100150
32.799484 -12.410453 2.1739767 4284573806
21.217571 -8.1771975 1.4219959 4286481803
21.224606 -8.3298416 1.4257703 4284968564
21.116556 -8.4373236 1.4220569 4287929503
21.008911 -8.5441713 1.4184043 4285824127
20.747013 -8.7358761 1.4081166 4285560954
20.600349 -8.8233194 1.4019682 4285166197
31.897541 -13.89448 2.1571143 4285955459
31.774267 -14.073364 2.1546185 4285560185
31.650911 -14.251669 2.1521835 4285889149
31.531105 -14.431068 2.150053 4285758334
31.348745 -14.580909 2.1437829 4285231222
31.009615 -14.655272 2.1269815 4285230709
30.91461 -14.843107 2.1266773 4285362297
30.798731 -15.020702 2.1250336 4284573808
30.681835 -15.197434 2.12339 4285166456
30.579985 -15.381371 2.1228421 4284968564
30.579256 -15.61684 2.1292949 4285231738
30.489946 -15.807852 2.1297817 4285231990
30.343794 -15.969069 2.1264336 4284968817
30.248762 -16.156837 2.1266773 4285363829
30.099037 -16.315022 2.1232073 4285494134
29.9765 -16.487373 2.1216855 4284375910
29.834675 -16.648623 2.1188853 4285626747
29.74412 -16.838253 2.1197376 4284836980
29.619469 -17.008514 2.1182766 4284903545
29.489536 -17.175367 2.1165111 4285759625
29.368984 -17.347357 2.1154764 4285429368
17.5198 7.6478143 0.96700996 4294901738
17.646246 7.5744514 0.97124469 4294638823
17.739323 7.4858418 0.97372717 4289573029
17.852268 7.4047933 0.9772805 4286415486
18.012054 7.3418708 0.98331624 4285231989
18.109615 7.2523808 0.98609072 4284311400
18.21419 7.1648955 0.98925465 4284376681
18.325823 7.0792789 0.99280792 4283324505
18.426817 6.9886646 0.99582583 4284575853
18.600395 6.9242606 1.0026404 4282733649
18.699762 6.8309093 1.0056095 4283191888
18.818422 6.7436748 1.0096009 4282730824
18.936712 6.6552405 1.0135924 4283059021
19.056517 6.5662589 1.017681 4282993228
19.18445 6.4789333 1.0222079 4281875769
19.289272 6.3827524 1.0255665 4283191112
19.43924 6.3003111 1.0312616 4282598460
19.588917 6.2162695 1.0369565 4282269236
19.704906 6.1202555 1.0409479 4282795064
19.843386 6.0300221 1.0461075 4282992440
19.962351 5.9326272 1.0502937 4282532141
20.120188 5.8454251 1.0564754 4282072367
20.252718 5.7494149 1.0613916 4285361758
20.391565 5.6538653 1.0666486 4284834385
20.433584 5.5307269 1.0670379 4282925359
18.448841 4.8721066 0.96530634 4294900449
18.470652 4.7568212 0.96491688 4284834118
20.488333 5.1427298 1.0648476 4284834118
20.507858 5.0140715 1.0642635 4285294419
20.626661 4.909193 1.0686929 4290228643
20.773161 4.8095794 1.0745341 4288451979
20.897774 4.703526 1.0793042 4286345832
21.037477 4.5995369 1.0848532 4285228375
21.203066 4.4996104 1.0917164 4285293909
21.332998 4.390573 1.0968274 4285557332
21.506464 4.2889028 1.1041287 4285819991
21.66477 4.1824269 1.1106999 4285360212
21.779373 4.0661016 1.1151294 4286017889
21.98772 3.9655502 1.1242316 4285293396
22.113979 3.848376 1.1292939 4285884763
22.268187 3.7345936 1.1357677 4286345054
22.395203 3.6147642 1.1409273 4287398000
22.63114 3.5105162 1.1514899 4286675821
22.731291 3.3833559 1.1553839 4285292895
22.84457 3.2570727 1.1599594 4284565831
3.8647349 0.5258587 0.22548825 4289570451
21.269352 2.7665339 1.0806671 4286017119
23.327875 2.8889563 1.1809385 4285690472
3.8410244 0.4507806 0.22388196 4283911759
3.5598149 0.39556301 0.20996079 4289768619
3.6168079 0.37946266 0.21263793 4292598749
3.7264154 0.36789504 0.21789488 4291875537
2.6206884 0.24215376 0.16367042 4282006066
2.4290783 0.20933872 0.15422739 4283518787
2.2600703 0.18072782 0.14590389 4282992189
2.0439939 0.1507204 0.13529265 4285295716
2.001034 0.13518792 0.13315094 4286085741
1.8732256 0.11493612 0.12687179 4287333753
1.8808765 0.10382978 0.12721252 4283185972
1.8774877 0.092088766 0.12701783 4282659628
1.8291217 0.078438833 0.12463272 4283778108
1.8295686 0.067214079 0.12463272 4288382593
1.8179666 0.055612594 0.12404862 4290688943
1.7104356 0.041750584 0.11879167 4294834933
1.6866926 0.030800452 0.11762346 4281870887
1.6648777 0.020168884 0.1165526 4281673249
1.654982 0.009886275 0.11606584 4281804067
1.6510162 -0.00027086923 0.11587115 4281869349
1.6469883 -0.010378974 0.11567644 4282393381
1.6448961 -0.020461086 0.11557909 4284430646
1.6447396 -0.030553592 0.11557909 4287060298
1.6894549 -0.041723486 0.11776949 4288244563
28.29072 -1.0277302 1.4150187 4293385391
28.526371 -1.2115886 1.4268469 4292596652
28.764816 -1.3985714 1.4388697 4280162579
28.874374 -1.5815384 1.4446621 4294571749
27.882116 -1.6988847 1.3967167 4294767823
28.791006 -1.9316095 1.4416442 4294438858
28.910103 -2.1178586 1.4480693 4294045130
29.134531 -2.3140996 1.4597028 4292467127
29.426302 -2.5190492 1.4746948 4291677617
29.859867 -2.7408066 1.4966961 4284571213
30.083048 -2.9475327 1.5084755 4293847759
30.481642 -3.1755149 1.5289192 4294967272
30.68099 -3.3866975 1.5396765 4280359691
30.755867 -3.5861058 1.5443981 4294966770
30.650005 -3.764528 1.5403093 4281345564
31.601086 -4.0782828 1.5882059 4294306259
31.418091 -4.2508187 1.5804665 4294109642
32.39521 -4.5855684 1.6298721 4289505423
32.590759 -4.8174019 1.6409215 4293386436
32.488525 -5.0061822 1.6373682 4293056956
33.60614 -5.3896575 1.6940751 4290227604
33.941895 -5.6573277 1.7123283 4283913544
33.963627 -5.8753572 1.7151515 4294769387
33.896458 -6.0781794 1.7136426 4293059274
34.026459 -6.3172212 1.721966 4290887851
34.438267 -6.6125069 1.7443568 4284767058
35.083839 -6.9599133 1.7784783 4286938229
35.274338 -7.2229319 1.7901117 4286149744
35.216648 -7.436553 1.7894789 4285690482
35.139122 -7.6457038 1.7879213 4284969321
35.011631 -7.8432679 1.7839299 4285165930
34.880116 -8.0388832 1.7797925 4285363308
34.833046 -8.2534428 1.7799386 4286744961
34.756516 -8.4608774 1.7786729 4285494130
23.221136 -5.8043413 1.201869 4285428589
23.163797 -5.941256 1.2007982 4284244314
33.513206 -9.923315 1.7387104 4280822059
33.469849 -10.13426 1.7396352 4286613902
21.181898 -6.8421597 1.1201916 4293850619
21.114853 -6.9638681 1.118926 4294638589
21.038593 -7.0821443 1.1172224 4294573048
20.958845 -7.1987734 1.1153727 4294112750
20.880344 -7.315352 1.1136204 4288980635
20.800262 -7.4309025 1.1118194 4294441202
20.530907 -7.477056 1.1002346 4294901241
20.4116 -7.5757856 1.0964379 4294835447
20.393694 -7.7118363 1.0979469 4294967287
20.349718 -7.8382607 1.0981416 4294967288
20.292873 -7.9596944 1.0977036 4294901240
20.20562 -8.0688744 1.0957078 4284045396
20.104837 -8.1720181 1.0930307 4294967290
20.019241 -8.2807198 1.091181 4294967293
19.845612 -8.3518782 1.0847071 4289967540
20.099764 -8.6043682 1.1009161 4284309340
20.380863 -8.873044 1.1186826 4284375135
20.788189 -9.2024879 1.1433125 4285296751
31.071289 -13.982593 1.695876 4285889399
30.973103 -14.167579 1.6952432 4286020735
30.575821 -14.213376 1.6785963 4285231222
30.461842 -14.388348 1.6771847 4285099385
30.259518 -14.520544 1.6710516 4284376691
30.24168 -14.740948 1.6749456 4284114030
30.163195 -14.932433 1.6756271 4282600791
30.1656 -15.164782 1.6807866 4285890440
30.069311 -15.348226 1.6806406 4284838004
29.992306 -15.541629 1.6816142 4284113509
29.86721 -15.710023 1.6800078 4285032813
29.779062 -15.897692 1.6804945 4285099376
29.671295 -16.074881 1.6799592 4286085501
29.250227 -16.314213 1.6675956 4285693315
29.016628 -16.891554 1.6716356 4283126614
28.897818 -17.060646 1.6708082 4283652188
28.794302 -17.238667 1.6709056 4285559925
17.272432 7.5325418 0.72326857 4294505942
17.380781 7.4531984 0.72574848 4294110931
17.495249 7.375526 0.72848368 4290032030
17.850378 7.3965683 0.74073738 4292202684
18.005566 7.3317475 0.74507719 4286018908
18.116093 7.2474818 0.74766654 4285690205
18.22068 7.1599431 0.75003701 4284770908
18.242825 7.0397344 0.74919826 4284245597
18.14176 6.8731456 0.74358195 4283982936
18.109592 6.7341852 0.7407009 4284179286
18.155266 6.6246524 0.74088323 4284375633
18.291542 6.5474796 0.7446031 4284572240
18.413408 6.4639173 0.74777591 4285295189
18.50942 6.3703256 0.74996412 4285294420
18.630541 6.284421 0.75313693 4285622872
18.757944 6.1994638 0.75656503 4285819993
18.923033 6.1254888 0.7614519 4286016600
19.027901 6.0306997 0.76404124 4285425493
19.185762 5.9514322 0.76867282 4285688665
19.26017 5.8452063 0.77013165 4286149215
19.391476 5.7553511 0.77377856 4286149215
19.539679 5.6691141 0.77808195 4286347359
19.63755 5.5671024 0.78048891 4285294669
19.787876 5.4787674 0.78490168 4284898887
19.891544 5.3762813 0.78756392 4285489746
18.474701 4.8719254 0.73286003 4292267200
18.509087 4.7597189 0.73304236 4284240708
20.385542 5.1090741 0.80255282 4283516215
20.486406 5.0009561 0.80517858 4288516223
20.61685 4.8989539 0.80893493 4290489483
20.751677 4.7966638 0.8128736 4285687885
20.920149 4.7005692 0.81808871 4284437319
21.076498 4.6000299 0.8228662 4284438606
21.206001 4.4921565 0.82665902 4293650649
21.356504 4.3872905 0.83125412 4294965209
21.495735 4.2785997 0.83544815 4294702559
21.613827 4.1643944 0.83887625 4284310361
21.637009 4.0313296 0.83880329 4286808434
21.645599 3.8956597 0.83821976 4290492057
21.657278 3.76072 0.83778214 4292662962
21.695719 3.6304014 0.83836567 4291412895
21.773823 3.5062654 0.84044445 4294241495
21.87196 3.3845165 0.84328902 4289768090
4.0014071 0.5943892 0.18323126 4286542958
3.9010935 0.5550552 0.17940199 4280421640
21.276999 2.8925166 0.81921929 4292394150
21.293358 2.7617803 0.81918281 4294108100
22.815462 2.8169346 0.87454319 4294570444
23.04472 2.7017877 0.88234764 4281216029
3.7504137 0.41671574 0.17331162 4284439388
3.2360766 0.33953223 0.15434758 4291086272
2.919579 0.27018505 0.14260447 4283191629
3.0755062 0.26557234 0.14825723 4294637526
24.005161 1.921914 0.91444063 4292534217
2.2772517 0.16861716 0.11893591 4283585345
2.3171284 0.15727386 0.12035821 4285822571
2.2033434 0.13599354 0.11616424 4291480507
1.8598937 0.10340428 0.10358233 4281146905
1.8185717 0.089926206 0.10205062 4282396202
1.8041131 0.078120686 0.10150358 4282398001
1.7955707 0.066717356 0.10117536 4283648581
1.7719736 0.054960366 0.1003001 4290753196
1.7213269 0.042830378 0.098440163 4283448633
1.7125649 0.032101177 0.098111935 4282396206
1.6757569 0.021134695 0.096762568 4281279520
1.6638633 0.010777154 0.096324943 4281804837
1.6638981 0.00056767813 0.096324943 4282066728
1.653877 -0.0095815919 0.095960245 4282459174
1.6527879 -0.019717256 0.095923781 4284431676
1.6616284 -0.030022772 0.096252002 4286270269
1.6853898 -0.040803749 0.097127266 4287653204
1.6611348 -0.050411247 0.096252002 4281209608
27.45822 -1.0079604 1.0383267 4294766541
27.578321 -1.1818577 1.0429584 4294571223
27.715277 -1.3581471 1.0482464 4283123013
27.621607 -1.5235 1.0451465 4294899425
27.777317 -1.7031088 1.0512004 4293843639
28.728516 -1.9384502 1.0863932 4294897356
28.893482 -2.1277549 1.0928848 4294568910
29.180725 -2.3290172 1.1038985 4293846987
29.486485 -2.5355964 1.1156416 4293846470
29.512169 -2.7203274 1.1171733 4292530095
29.59338 -2.9110458 1.1207838 4290754464
29.502405 -3.084985 1.1181215 4293386456
29.792816 -3.3002827 1.1295 4280426005
30.090618 -3.5203044 1.1412066 4291807172
30.41361 -3.7474039 1.1538979 4280884760
30.735924 -3.9787261 1.1666257 4293910983
31.222898 -4.2367191 1.1854804 4291936405
31.428822 -4.4612269 1.1940507 4293382572
31.779467 -4.7101059 1.2080184 4292659627
32.106499 -4.9600959 1.2211838 4293385153
32.472103 -5.2207794 1.2358445 4294965475
32.774578 -5.4759231 1.248244 4294701528
32.544418 -5.6429439 1.2409866 4293977805
33.736683 -6.0631471 1.2865003 4292595898
33.713581 -6.2727795 1.2870473 4292266686
33.691143 -6.4827337 1.2876673 4284438095
22.234768 -4.9900408 0.86721289 4282334279
22.172575 -5.1191826 0.86604583 4280230443
23.797575 -5.6484151 0.92818952 4281879114
23.093531 -5.6312003 0.90306216 4288458926
23.053696 -5.7715797 0.90287983 4285626229
23.027527 -5.9154129 0.90324455 4282202426
24.197784 -6.3745794 0.94879466 4280361251
24.280743 -6.5560198 0.9534263 4281416508
20.513144 -6.3574438 0.81932867 4285102470
20.490896 -6.4886217 0.81998515 4282469458
20.449747 -6.6139216 0.81994867 4285561727
20.30155 -6.7038636 0.81582767 4286152825
20.242043 -6.8222404 0.8151347 4293915108
20.196964 -6.9453402 0.81502533 4294376423
20.140766 -7.0645051 0.81451476 4291546813
20.070694 -7.1785293 0.81349361 4290625206
19.932383 -7.267313 0.8098467 4294440951
19.742218 -7.3355255 0.80419391 4294441203
19.536087 -7.3956652 0.79792124 4294769657
19.369125 -7.4686556 0.79318023 4294506482
19.316423 -7.584805 0.79292494 4294178022
19.258385 -7.6987338 0.79248732 4291612344
19.192272 -7.8092222 0.79175788 4294506995
19.234478 -7.9643049 0.7953319 4294310129
19.271814 -8.1186466 0.79876 4294705146
19.812263 -8.4898472 0.82220978 4294901759
20.021805 -8.725441 0.83263999 4294639615
20.45121 -9.0623055 0.85193223 4287729552
30.507097 -13.743022 1.2566684 4285229931
30.389488 -13.914974 1.2553555 4285099626
30.249174 -14.075881 1.2531674 4287007621
30.15049 -14.255669 1.2526933 4287729552
30.027321 -14.423525 1.2512709 4287991699
29.913109 -14.595227 1.2502499 4287464834
29.814932 -14.774502 1.2499216 4285491296
29.714788 -14.952673 1.2495569 4285622631
29.608242 -15.127443 1.2489734 4287792794
20.442501 -10.603024 0.87600195 4288516511
19.274385 -10.147692 0.83052474 4285951863
19.202063 -10.260585 0.8301236 4292268242
19.097454 -10.355824 0.82840955 4289231493
19.018667 -10.464619 0.82778955 4286333521
18.961081 -10.585014 0.82808131 4284759360
20.387074 -11.545754 0.89062619 4287789690
20.032494 -11.507848 0.87870073 4284175184
19.762913 -11.514833 0.87031275 4286345330
28.359417 -16.993326 1.2421172 4287271826
17.01082 7.4220629 0.48614073 4294373063
17.121267 7.3455362 0.48786303 4291149209
17.238781 7.2710409 0.48977938 4292925370
17.352333 7.1938472 0.49159873 4290688671
17.437807 7.1042161 0.49269029 4284899151
17.536757 7.0193791 0.49414578 4285492063
17.699511 6.958838 0.49727502 4283452991
17.786642 6.8673916 0.49843937 4283189821
17.926596 6.7953377 0.50098646 4283519556
18.053215 6.7169428 0.50319386 4283388227
18.155127 6.6283331 0.50477064 4287597693
18.268867 6.5431075 0.50666273 4290952107
18.376579 6.4547467 0.50840926 4294175710
18.526426 6.3799591 0.51124746 4293322713
18.641949 6.2920637 0.51321232 4292269507
18.764677 6.2055016 0.51537126 4294241493
18.895603 6.1204419 0.51774848 4293253822
18.992836 6.023428 0.51927674 4292660913
19.161192 5.9476824 0.52262431 4291674535
19.256632 5.8480144 0.52412832 4290556058
19.3554 5.7485366 0.5257293 4293319095
19.382627 5.6274357 0.52553523 4292463524
19.243681 5.4592786 0.52116883 4292594851
19.231535 5.3285499 0.52002871 4293253304
19.273518 5.2130575 0.5202713 4281346580
18.492235 4.8801193 0.4998706 4293652446
18.516022 4.7650657 0.49972504 4294375130
19.758919 4.9559355 0.5300957 4292662964
19.841398 4.8474188 0.53140557 4292858544
19.987476 4.7533455 0.53431654 4292857003
20.117558 4.6540546 0.53683931 4294503369
20.258877 4.5559778 0.53965318 4283123250
20.398766 4.4561281 0.54244286 4284111438
20.543077 4.3557696 0.54535377 4293782231
20.697695 4.256022 0.54853153 4293187006
20.840088 4.1521959 0.55141819 4293319112
20.97217 4.0448866 0.55406231 4282598714
21.123365 3.9397802 0.55719155 4284900954
21.297674 3.837225 0.56090295 4288454281
21.435068 3.7263408 0.56371683 4288650628
21.592606 3.617384 0.56704015 4287729528
21.695324 3.4978788 0.56902927 4288980625
21.812208 3.3795455 0.57138228 4294768609
3.9683123 0.58896631 0.13314272 4294440676
22.217239 3.163645 0.58033335 4281671441
21.315014 2.9017978 0.55777371 4293972929
21.318537 2.7691534 0.55743408 4293449910
22.804489 2.8200748 0.59335977 4294241479
3.7462208 0.43896532 0.12732087 4287532399
3.795542 0.4211669 0.12846099 4289835944
3.7861238 0.39661646 0.12816989 4282005045
3.1587424 0.31111762 0.11281477 4294899693
2.9475682 0.27198836 0.10762362 4282859071
2.9332457 0.25251901 0.1072355 4284309072
23.25631 1.866539 0.60192269 4294702800
2.2711449 0.16720481 0.091055617 4282466347
2.3110268 0.15591016 0.092001662 4284110924
2.2470827 0.1377183 0.090424918 4288518542
1.8675861 0.10276362 0.081182733 4287268474
1.8312376 0.089473717 0.080285199 4288847768
1.7957965 0.076677121 0.079411924 4286546300
1.7812479 0.065099366 0.079048052 4286808704
1.8135891 0.055161774 0.079824299 4285688940
1.7059586 0.041343056 0.077204473 4294437353
1.6801924 0.030386645 0.076573774 4281869607
1.6603547 0.019823832 0.076088622 4281672997
1.6564463 0.0096096937 0.075991586 4281804837
1.6504759 -0.00055647519 0.075846039 4282132519
1.6494417 -0.010677831 0.075821787 4282196770
1.6493452 -0.020798413 0.075821787 4284826687
1.6501859 -0.030936245 0.075846039 4286337091
1.6419698 -0.040867709 0.075651973 4287981904
1.6456851 -0.051063057 0.07574901 4286934357
26.553453 -0.96932954 0.68054193 4294766540
26.638895 -1.1361552 0.68277365 4283845698
26.89703 -1.3125368 0.68922615 4292925653
27.173954 -1.4932244 0.69616389 4288781462
27.494568 -1.6801013 0.70419317 4293317305
27.697197 -1.8631227 0.70938432 4292330659
27.932507 -2.0511813 0.71540022 4292331681
28.218361 -2.2463202 0.72267753 4292989611
28.41222 -2.4372718 0.72774738 4294963661
28.701357 -2.6395628 0.73517025 4294898127
29.174126 -2.8636501 0.74710506 4294768088
29.445351 -3.0727885 0.75416404 4294505178
29.744905 -3.2886565 0.76195073 4294438102
29.837364 -3.4843204 0.76471615 4292526760
29.828321 -3.6689193 0.76503146 4290420609
29.911335 -3.8655794 0.76762706 4289302388
30.013857 -4.0662136 0.77073205 4287132763
30.406046 -4.309484 0.78096879 4285884237
21.508026 -3.4536715 0.56437182 4286410856
21.714214 -3.6235762 0.56997532 4287726708
21.449249 -3.7147894 0.56400794 4286476898
21.826534 -3.9182007 0.57388079 4289504154
22.124466 -4.1119518 0.58183736 4279044876
20.958416 -4.1619992 0.55428058 4292137937
23.201132 -5.0528355 0.61196542 4283187517
22.287844 -4.9974184 0.59003645 4294570215
22.22364 -5.126441 0.5892117 4285556578
22.462187 -5.3268213 0.59595531 4287400591
22.886564 -5.5759821 0.60738069 4284572013
22.904293 -5.729404 0.60869062 4291347916
22.752506 -5.8400149 0.60577971 4283650388
20.212086 -5.9891505 0.54731864 4284640892
19.946289 -6.0437841 0.54152107 4285365896
19.86681 -6.1530471 0.54045373 4285826957
19.839167 -6.2781487 0.54072052 4287536285
19.780293 -6.3933063 0.54021114 4292535525
19.715061 -6.5060983 0.53955621 4294376185
19.646345 -6.617373 0.53882843 4293322208
19.582682 -6.7299991 0.53824627 4291085757
19.501394 -6.8361416 0.53722745 4283453520
19.412954 -6.9391861 0.53603882 4283387989
19.335255 -7.0455093 0.53514129 4281941570
19.236366 -7.1434855 0.53371006 4284573032
19.116434 -7.2327323 0.5317452 4294638330
18.997068 -7.3211374 0.52980459 4294374647
18.885712 -7.4116368 0.52808225 4294770168
18.815742 -7.5177355 0.52745157 4286414456
18.813711 -7.6511197 0.52861595 4282203712
18.97518 -7.852798 0.53409821 4294506746
19.133951 -8.0563545 0.53955621 4294901755
19.620848 -8.4034319 0.55372268 4292665580
20.001532 -8.7120705 0.56517231 4287731379
17.266287 -8.6844015 0.50477064 4293388764
18.483658 -9.726944 0.54261267 4290888640
18.42098 -9.8387613 0.54253989 4293126883
19.082743 -10.343151 0.56247967 4292202182
19.011911 -10.456191 0.56228566 4287326059
19.913828 -11.11185 0.58913893 4288899696
19.833963 -11.227428 0.58882356 4292850861
19.738688 -11.333984 0.58809584 4294502104
18.274429 -10.64293 0.54894388 4290820014
18.436035 -10.889068 0.55534792 4285228640
16.738258 7.2996011 0.25272509 4291147677
16.859011 7.2294674 0.25371015 4290884504
16.99151 7.1631746 0.25484946 4290819479
17.097958 7.0848093 0.25565648 4292661935
17.209641 7.007669 0.2565347 4292004264
17.256027 6.9034262 0.2565822 4291477922
17.286892 6.7930269 0.25643978 4291017369
17.310524 6.6799893 0.25621426 4291477922
17.398876 6.5917149 0.25681955 4291016860
17.500853 6.507833 0.25760281 4290885019
17.594936 6.4202065 0.25829118 4287399283
17.70743 6.3384094 0.25921687 4285491296
17.825241 6.2574587 0.26021379 4282860597
17.934214 6.1723709 0.26110387 4291806885
18.068392 6.09481 0.26231441 4292201897
18.196596 6.0139513 0.26345372 4292464556
18.314968 5.928668 0.26447439 4292397995
18.448229 5.8469911 0.2656849 4292463534
18.567801 5.7597532 0.2667293 4293385919
18.678383 5.668654 0.26766688 4292400043
18.830723 5.5889311 0.26912662 4292662437
18.926123 5.4911141 0.26988617 4291412881
19.05566 5.402153 0.27107298 4291609233
19.187708 5.3126078 0.27229536 4291477409
19.282688 5.2117319 0.27306679 4283648569
18.519529 4.8837457 0.26331133 4292137667
18.553019 4.7710161 0.26335877 4294767570
19.789516 4.9597082 0.27813441 4294570445
19.87203 4.8509927 0.27877527 4294964948
20.018164 4.7567062 0.28019941 4294964434
20.136604 4.6545033 0.28129128 4293187257
20.251616 4.5503688 0.28234753 4289175683
20.356331 4.4428644 0.28328508 4292335023
20.394947 4.320363 0.28342751 4293450419
20.413237 4.193531 0.28333259 4291607958
20.404261 4.061367 0.2829172 4292530862
20.363993 3.9236081 0.28213391 4285886547
20.448631 3.8099372 0.2828697 4285689177
20.560194 3.7003338 0.28393781 4293977553
20.716497 3.597373 0.28555188 4294306257
20.875265 3.4931276 0.28720152 4292926405
4.0978627 0.66020143 0.085256316 4285887583
4.0959077 0.63412768 0.085185111 4292334785
21.389029 3.1755378 0.29263705 4292793529
21.499187 3.0571868 0.29372889 4282724383
21.399635 2.9091861 0.29231662 4293579965
21.398243 2.775382 0.29209113 4294964947
22.036108 2.7207241 0.29952046 4293912779
22.089134 2.5897694 0.29995957 4279241984
3.8420808 0.42689157 0.081873946 4287335309
3.6795437 0.38600799 0.079903871 4292797658
3.0039492 0.2779817 0.071798049 4280888357
2.9249036 0.25258666 0.070836745 4292138437
23.31275 1.8664891 0.31357214 4293319346
23.431461 1.7313656 0.31485388 4282335011
2.26263 0.1535839 0.062908947 4286084454
2.3633339 0.1458403 0.064095743 4288453261
1.86798 0.10385218 0.058197364 4292137670
1.8236395 0.090175726 0.057663307 4288848536
1.8091737 0.078338727 0.05748529 4287993740
1.7876368 0.066424266 0.057224192 4286219138
1.7740184 0.055023339 0.057058044 4291676357
1.7523309 0.043594867 0.056796946 4284565318
1.6975785 0.031823646 0.056144208 4280947214
1.6757451 0.021134546 0.055883117 4281739040
1.6658442 0.010789526 0.055764437 4281804837
1.6668789 0.00056800328 0.055776305 4282198312
1.6598517 -0.0096175997 0.055693228 4282262565
1.6607612 -0.01981424 0.055705093 4283313964
1.6656073 -0.030095585 0.055764437 4285218871
1.6913817 -0.040950187 0.056073003 4287784801
26.685623 -1.143589 0.35300937 4291541913
26.731035 -1.309902 0.35363835 4291015570
26.822338 -1.4794042 0.35482517 4290028423
26.810759 -1.6438327 0.35480142 4287000667
26.86701 -1.8128207 0.35559657 4286277201
27.019922 -1.9897587 0.35755479 4286607708
26.318012 -2.263092 0.34950832 4285227349
26.217007 -2.4165478 0.34847581 4281873451
26.203672 -2.5775626 0.34849954 4285294433
21.714645 -2.4053223 0.29529548 4289701034
21.845472 -2.5555973 0.29704008 4290427065
21.901829 -2.6985183 0.29790643 4289837499
20.792292 -3.6050763 0.28645384 4288974994
20.610346 -3.7039323 0.28453124 4292989655
20.610825 -3.8347154 0.28481606 4282334012
20.865768 -4.01477 0.28818655 4279437837
21.030027 -4.1803536 0.29047707 4286478707
21.065689 -4.3219748 0.29122475 4286604133
22.085522 -4.6726294 0.30392349 4285550935
22.077929 -4.8127413 0.30418459 4285095522
20.644375 -5.1683559 0.28857821 4283059789
20.752705 -5.3310065 0.29029906 4284572252
20.858843 -5.4949255 0.29200804 4293716448
19.851433 -5.7540593 0.28130317 4283653217
19.845472 -5.8845696 0.28167105 4286549140
19.807077 -6.0056486 0.28164732 4284378484
19.701086 -6.1057553 0.28079283 4285628814
19.659437 -6.2253165 0.28074536 4285233805
19.478161 -6.2996683 0.27896518 4285364364
19.36318 -6.3939815 0.27801573 4285693582
19.249674 -6.4877601 0.27709001 4285562503
19.130075 -6.5784359 0.27609313 4285562505
19.057268 -6.6844382 0.2756896 4285496201
18.982 -6.7891226 0.27526236 4284642173
18.842285 -6.8698425 0.27402809 4286155410
18.721981 -6.9564195 0.27304304 4286089102
18.634056 -7.0541701 0.27247339 4285100665
18.532579 -7.1460686 0.27173758 4292797931
18.379486 -7.2168856 0.27034903 4294769916
18.43049 -7.3677568 0.2715714 4294703871
18.48867 -7.5229158 0.27290064 4291282885
18.782143 -7.7769995 0.27726805 4294835455
19.401228 -8.1731672 0.28586045 4286019973
22.928942 -10.160286 0.3336527 4294114559
18.470123 -8.7328243 0.27847856 4294045405
18.449541 -8.862011 0.27891767 4280888369
18.537704 -9.0447674 0.28080469 4282663252
17.071207 -8.5901585 0.26281285 4290362037
17.158867 -8.7666264 0.26468801 4294901241
19.315046 -10.169101 0.29506999 4294308336
19.088251 -10.199768 0.29286253 4293519847
19.110571 -10.362936 0.29401374 4294704113
19.030855 -10.471324 0.29380012 4291540908
18.985455 -10.598622 0.29406121 4294960342
19.671814 -11.140668 0.30431512 4294965728
17.288958 -9.9317379 0.27263954 4290229411
17.284714 -10.070858 0.27342284 4289373609
17.375828 -10.267274 0.27553532 4288720838
16.479887 7.1972132 0.023636535 4290556820
16.592651 7.1255579 0.023584174 4291674788
16.686728 7.0450087 0.023545776 4291543202
16.809994 6.9758396 0.023485038 4292266927
16.909889 6.8959794 0.023441754 4291938475
16.924036 6.7809329 0.023462698 4291675301
16.919729 6.6590137 0.023496907 4291083164
16.991985 6.5673304 0.02347317 4290754199
17.196508 6.5253968 0.023350298 4291083164
17.490173 6.5143628 0.023161106 4291872419
17.589926 6.428896 0.023116425 4293518021
17.689283 6.3424497 0.023071745 4291938740
17.816544 6.2649784 0.023006121 4292267965
17.937841 6.1842275 0.022944685 4291281060
18.049343 6.0990205 0.022890231 4291873969
18.159523 6.0123639 0.022836475 4291676081
18.272169 5.9255085 0.022780623 4284701259
18.424461 5.8502092 0.022695452 4286609517
18.498207 5.7489223 0.022667527 4294044118
18.204975 5.5355077 0.022906985 4293254071
18.319111 5.4476476 0.022848342 4293186990
18.368517 5.3398876 0.022836475 4294107070
18.450956 5.2412925 0.022800172 4294106034
18.566601 5.1512451 0.022739435 4293449130
18.644188 5.049777 0.022705924 4282728493
18.622616 4.921483 0.022743624 4290618262
18.546911 4.7799158 0.02281972 4293971122
18.783442 4.7181711 0.022670319 4294169781
19.250109 4.7100425 0.022355461 4293645744
19.341877 4.6069012 0.022310084 4293119914
19.489605 4.5159068 0.022224214 4293382572
19.594015 4.4136 0.022169061 4289765502
19.728184 4.3168097 0.022092266 4293584066
19.913742 4.2295523 0.021978471 4292792238
20.047054 4.1294837 0.021901676 4292791980
20.179886 4.0279369 0.021824881 4291676069
20.281786 3.9190321 0.021769729 4291348395
20.404732 3.8130703 0.021699218 4292729545
20.543863 3.7087674 0.021616839 4292924628
20.518948 3.5744026 0.021650348 4289830554
4.2180815 0.707205 0.033205125 4288912775
21.126925 3.4137671 0.021250319 4294570961
21.221584 3.295584 0.02119796 4284240961
21.32152 3.1772513 0.02114141 4291410094
21.290125 3.0391552 0.021177016 4281802523
21.233072 2.8981822 0.021230074 4294963178
21.261364 2.7692652 0.021222394 4286803288
21.278948 2.6388788 0.021221697 4285027152
21.414906 2.5224252 0.021137223 4284569170
3.8044569 0.42349786 0.033518586 4286743170
3.8059893 0.40004134 0.033519287 4289309097
3.7685678 0.37273136 0.033547211 4291478710
2.9821889 0.27624121 0.03410013 4282069046
2.9111016 0.25162205 0.034151096 4293451728
22.550804 1.8177971 0.020396505 4292136127
22.562532 1.6794679 0.020395806 4283384629
2.3325982 0.15818885 0.034558803 4285689953
2.3215482 0.14312886 0.034567181 4286477418
1.8081884 0.10008566 0.03492672 4293980643
1.7997798 0.08854086 0.034933001 4289045145
1.8122776 0.078019843 0.034924623 4287728774
1.7917371 0.066110387 0.034939285 4286476136
1.7271409 0.053074617 0.034984663 4282264867
1.6994431 0.041768774 0.03500421 4283448884
1.6756717 0.030881364 0.035020966 4281407254
1.6648308 0.020456146 0.035028648 4282328358
1.657925 0.010192561 0.035033531 4282000933
1.6519563 1.5213271e-05 0.035037722 4282328871
1.6499255 -0.010110168 0.035039119 4282721574
1.6488323 -0.02022218 0.035039816 4283970612
1.6516769 -0.030391904 0.035037722 4285614401
1.6834501 -0.041288119 0.035015382 4287784537
1.7351418 -0.053174466 0.034979079 4291604635
20.508541 -0.74176449 0.021863978 4287267437
20.470634 -0.86619532 0.021887016 4286741606
20.360056 -0.98670781 0.021960318 4291412656
20.305691 -1.1090014 0.021993831 4286938221
20.257578 -1.2310892 0.022022452 4287465076
20.229689 -1.3540297 0.022036415 4287268209
20.228975 -1.478714 0.02203083 4286940271
20.239462 -1.604388 0.022016868 4294966759
20.968952 -2.3113134 0.021463249 4294307556
21.153036 -2.4630535 0.021323623 4293848822
21.80155 -2.6742146 0.020856574 4285039008
21.923584 -2.8258257 0.020758834 4285698994
