# .PCD v0.7 - Point Cloud Data file format
VERSION 0.7
FIELDS x y z rgb
SIZE 4 4 4 4
TYPE F F F U
COUNT 1 1 1 1
WIDTH 1106
HEIGHT 1
VIEWPOINT 0 0 0 1 0 0 0
POINTS 1106
DATA ascii
28.825977 4.4656219 1.8142092 4289639076
28.941692 4.3018713 1.8196881 4286085230
29.02387 4.132226 1.8231578 4284374610
3.804759 0.51823419 0.26940137 4282992969
3.8009384 0.4939791 0.26897526 4283255882
3.7959731 0.46966794 0.26848826 4286281843
3.4280231 0.40283978 0.24572127 4285426534
2.9919519 0.33304605 0.21881481 4284900707
2.7556934 0.28967106 0.20420496 4285690993
2.6729875 0.26441705 0.19903065 4285888113
2.4211166 0.22454575 0.1835077 4286480250
2.2891936 0.19817251 0.17535053 4286282357
2.2087808 0.17757757 0.17035884 4285756014
2.1839478 0.16210493 0.16877611 4285492842
2.044486 0.13916965 0.16019282 4285492844
2.0004702 0.12385526 0.15745348 4287071357
1.9144876 0.10676061 0.15215741 4282530609
1.885199 0.093533732 0.15033118 4282726190
1.8917207 0.08222346 0.15069643 4283120697
1.8592732 0.069392815 0.14868757 4283583815
1.8317293 0.057117995 0.14698309 4290100404
1.7073157 0.042780299 0.13937381 4293717737
1.6825967 0.031837214 0.13785195 4282593330
1.6827604 0.021512393 0.13785195 4282461227
1.669885 0.011103466 0.13706058 4282527020
1.6539515 0.00085250428 0.13608658 4282723629
1.6629087 -0.0093485396 0.13663447 4282723629
1.6518412 -0.019420156 0.13596484 4282788909
1.6546849 -0.029609568 0.13614747 4282919977
20.104889 -8.6110992 1.3690963 4284242256
20.184362 -8.792098 1.377923 4285227872
20.860138 -9.2391663 1.4266224 4284898908
20.947765 -9.4321489 1.4363015 4285623398
21.328775 -9.7615585 1.4657645 4283914320
21.710135 -10.097674 1.4954712 4281086253
22.014156 -10.403857 1.5201862 4283453779
22.826311 -10.95954 1.5794778 4281939770
23.467369 -11.445057 1.6275685 4282662716
18.030268 -9.0688353 1.2660968 4291281848
17.935171 -9.1593218 1.2634184 4291085223
17.862682 -9.2609272 1.2623227 4291348402
17.790504 -9.3624535 1.2612877 4292992976
17.70455 -9.4563904 1.2593398 4294177250
17.633907 -9.5581856 1.2584875 4294374370
17.559187 -9.657546 1.2573917 4292268996
17.46909 -9.7480822 1.2552612 4292071877
17.391577 -9.845252 1.2540438 4293126102
17.299679 -9.9338846 1.2518523 4291481016
17.234087 -10.037335 1.2515478 4289111191
17.209129 -10.164721 1.2541654 4288058244
31.346535 13.684525 1.7022525 4288319622
31.752062 13.630232 1.7193376 4293910230
31.938162 13.478647 1.7247893 4289964960
31.129057 12.912705 1.6777688 4292398788
29.466101 12.011444 1.586113 4287924095
29.500303 11.814818 1.5840685 4283713345
29.69865 11.68332 1.5906885 4291740089
29.592758 11.432476 1.5814401 4286345579
29.266384 11.10048 1.5608017 4286412398
29.043772 10.812656 1.5457124 4285492066
29.05422 10.61402 1.5428405 4285556576
29.08213 10.422403 1.5409421 4284899157
27.947874 9.822773 1.4790757 4283978575
27.292248 9.2176046 1.4392591 4284505179
27.281918 9.0280018 1.4358518 4285031261
27.316845 8.8539639 1.4348296 4285096536
27.345905 8.6783276 1.4335641 4284438861
28.583321 8.8784027 1.494019 4284042048
28.622921 8.6984949 1.4932889 4290883240
28.672886 8.5218506 1.4931428 4286410598
28.746695 8.3521671 1.4942623 4285095512
28.801243 8.1767149 1.494457 4284438610
28.836437 7.9958353 1.493727 4286083951
28.871456 7.815094 1.4930454 4286478707
28.897621 7.6321836 1.4919746 4285952617
28.949713 7.4562221 1.4922667 4284767571
29.04723 7.2915835 1.4948951 4285162329
29.47563 7.2071753 1.5141706 4285820259
29.381323 6.9933338 1.5072587 4285753957
29.380863 6.8030066 1.5051169 4286017388
29.242592 6.3939328 1.4941651 4285754987
28.797634 6.111721 1.4700707 4284898908
28.453058 5.8563609 1.4510872 4284900705
28.388546 5.6617365 1.4461223 4285164389
28.088335 5.4228625 1.4295241 4285099109
28.13188 5.2524304 1.4300594 4284835937
28.198961 5.0861015 1.4318118 4285296233
28.332964 4.9309664 1.4369227 4284968040
28.334118 4.7522335 1.4355111 4285165419
28.210894 4.5537715 1.4280151 4284640106
28.282719 4.3874784 1.4302055 4285691509
28.326891 4.2165046 1.4310817 4286217335
28.453089 4.0569997 1.4360465 4285822319
3.8182211 0.51951551 0.2232005 4293388253
28.698824 3.7333078 1.4457816 4285888113
3.627053 0.44818249 0.21351409 4281807666
3.8172171 0.4479793 0.22271374 4285161826
3.5459177 0.39401415 0.20927933 4288847519
3.5909815 0.37674463 0.21137238 4287135359
3.6946089 0.36474484 0.21633726 4282266677
2.4983604 0.23079564 0.15768334 4284570964
2.3872848 0.20571671 0.15218303 4285032026
2.16748 0.17327565 0.14137708 4285360990
2.0439939 0.1507204 0.13529265 4285426784
2.0169783 0.13627444 0.13392973 4285294944
1.9071202 0.11703704 0.12852675 4286806381
1.9137862 0.10566701 0.12881881 4283974197
1.9134008 0.093872696 0.12877014 4283643951
1.8450876 0.079133742 0.12541154 4283118385
1.8345592 0.067400619 0.1248761 4283054651
1.8199632 0.055674959 0.12414597 4282069809
1.7024477 0.04155013 0.11840227 4294175208
1.6906871 0.030876173 0.11781816 4282658352
1.6638789 0.020156084 0.11650392 4282657836
1.6629723 0.0099396622 0.11645525 4282723114
1.6460222 -0.00027359306 0.11562777 4282788907
1.6479871 -0.010384558 0.11572511 4282985259
1.6478925 -0.020496223 0.11572511 4283051052
1.6497329 -0.030642793 0.11582246 4283182636
1.6644918 -0.041124299 0.1165526 4283380015
17.348577 -6.4391294 0.93722057 4294964710
17.319954 -6.5496955 0.9378047 4294964709
17.670914 -6.8066092 0.95824838 4294965735
17.798983 -6.9816427 0.96715599 4294505954
18.281761 -7.3007245 0.99475497 4293057221
18.355988 -7.4612727 1.001034 4289634178
18.368008 -7.5978112 1.0041006 4288646768
18.315519 -7.7080483 1.0038086 4290092671
18.329401 -7.8466177 1.0070698 4290092157
18.301973 -7.9681058 1.0081893 4285224766
18.335854 -8.1170425 1.0126188 4285095498
18.26202 -8.2187395 1.0113533 4284372292
18.21488 -8.3323002 1.0115479 4285818457
18.211416 -8.4662218 1.0141277 4287465065
18.134741 -8.5662889 1.0128136 4294702021
15.631532 -7.5016842 0.88036764 4293715125
15.577128 -7.5935178 0.8799296 4294569931
15.518605 -7.6831942 0.87929678 4292530887
15.436366 -7.7607751 0.87739849 4293059020
15.37956 -7.8508039 0.8769117 4294504665
15.293851 -7.9257236 0.87486732 4291413946
15.230787 -8.0119772 0.87408853 4289440675
15.158431 -8.093051 0.872823 4294112750
15.091802 -8.1768703 0.87189811 4293849576
15.036969 -8.2669125 0.87165475 4292729796
14.945833 -8.3366423 0.8694157 4289702792
14.90744 -8.4355698 0.8701458 4289110144
14.818149 -8.5055017 0.86805278 4288518013
14.753596 -8.5892296 0.86737132 4294637016
14.700616 -8.679595 0.86737132 4283188020
14.637655 -8.7639904 0.86683589 4281215782
30.538317 13.317497 1.2514168 4290556084
30.625885 13.132623 1.2516721 4281608487
29.575994 12.468153 1.2069243 4280823078
29.361124 12.165947 1.1954365 4285095516
29.008539 11.81183 1.1786242 4292530121
29.038719 11.616912 1.176983 4280489488
29.126196 11.445093 1.1776395 4283910209
28.359568 10.943461 1.1449264 4289043343
28.350485 10.740568 1.1419724 4291413433
28.387756 10.555962 1.1408784 4280556821
27.405231 9.999651 1.1002151 4281806890
27.392685 9.8050394 1.0973705 4284307022
25.989847 9.1234131 1.0408067 4288912521
26.061403 8.9692993 1.0414267 4293584068
27.354519 9.2269869 1.0891285 4285754198
27.324272 9.0304327 1.0858097 4281477912
27.373465 8.8607578 1.085591 4287465586
27.272038 8.6434202 1.0796465 4282794026
30.379829 9.4236002 1.1963847 4284964682
28.679451 8.7036362 1.1293541 4284305218
28.71986 8.5238028 1.12888 4283514937
28.73995 8.338232 1.1276765 4291870648
28.779034 8.1584587 1.1272389 4284898899
28.795805 7.9726548 1.125999 4288979093
26.195051 7.079864 1.0258542 4293650398
26.2351 6.9182363 1.0257449 4293121744
26.285767 6.7593699 1.0260731 4286607975
26.374245 6.6098604 1.02786 4283056180
28.597481 6.6100392 1.1067431 4281150755
28.611179 6.4285293 1.1057584 4282071855
28.64325 6.2513618 1.1055032 4282269236
28.690844 6.0775628 1.1058679 4281677101
28.579781 5.8710423 1.100361 4283124806
28.149714 5.6029124 1.0830381 4284045655
28.047165 5.4038057 1.0779688 4284309340
27.977621 5.2125745 1.0741761 4284440413
28.013996 5.0416946 1.0743583 4284374874
28.038494 4.8686833 1.0741396 4283848530
28.079672 4.6985297 1.0745772 4283519562
28.125729 4.529007 1.0752337 4283322434
28.176693 4.3600125 1.0761089 4282861883
3.9984417 0.59394896 0.18312186 4286085491
3.9475944 0.56166679 0.18111604 4285822317
28.472 3.8705144 1.0842052 4286150255
28.642881 3.71489 1.0896391 4289045139
28.694887 3.5427437 1.0907332 4289046168
3.7170177 0.43611318 0.17218107 4288715169
3.6699617 0.40778491 0.1703576 4285229169
3.3821785 0.35484385 0.15970857 4294702844
2.9056475 0.26889768 0.1420939 4285228902
2.9759421 0.25698745 0.14461029 4283584595
30.811842 2.4667645 1.1636353 4283388240
2.3250895 0.17215113 0.12068643 4284901225
2.3370695 0.15862401 0.12108759 4286281588
2.0746727 0.12807439 0.11145969 4288189830
1.8808476 0.1045649 0.10434818 4282464295
1.8305492 0.090515926 0.10248825 4283711794
1.7861418 0.077346347 0.10084713 4283316785
1.7755976 0.065979525 0.10044597 4283120697
1.7599872 0.054591205 0.099862464 4294701813
1.7253231 0.042928912 0.098586038 4283187529
1.7095674 0.032045666 0.098002523 4282395181
1.679754 0.021184184 0.09690845 4282328358
1.6688598 0.010808358 0.096507289 4282657832
1.6638981 0.00056767813 0.096324943 4282919977
1.6548764 -0.0095876148 0.095996723 4283051050
1.6587834 -0.019790182 0.09614259 4283051050
1.6606292 -0.030004486 0.096215531 4283182378
1.6783966 -0.040632837 0.09687198 4282919466
1.6771166 -0.050899971 0.096835509 4285226333
16.896841 -5.9266109 0.68906039 4290491053
16.836634 -6.0217619 0.68814862 4290621857
16.773079 -6.1153712 0.68712753 4284437319
16.709011 -6.208427 0.68610638 4283647037
16.642565 -6.30022 0.68501228 4283779138
16.547649 -6.3806453 0.68282413 4284173896
16.462608 -6.4641614 0.68103713 4284172867
16.407787 -6.5591173 0.6804536 4285093709
16.338537 -6.6479931 0.67932308 4285685842
16.266047 -6.7351203 0.67808312 4289699727
16.205074 -6.8266521 0.67731726 4289305740
16.143593 -6.9176898 0.6765514 4290621859
16.088017 -7.0110254 0.67604083 4293714648
16.004496 -7.091794 0.67443621 4293780441
15.917855 -7.1705694 0.67272216 4293319370
15.857203 -7.2606158 0.67206568 4294964703
15.785172 -7.3451281 0.67097163 4292728516
15.726255 -7.4354382 0.67042458 4286610796
15.653313 -7.5188117 0.66933048 4284703830
15.577246 -7.6002555 0.668127 4280690974
15.498082 -7.6797185 0.66681409 4284309843
15.429244 -7.7638874 0.66593885 4284901977
15.360848 -7.8479552 0.66510004 4285165400
15.287566 -7.9291763 0.66407889 4285493603
15.224477 -8.0153809 0.66349542 4285494358
15.166196 -8.1039352 0.6631307 4280098578
15.096858 -8.1863604 0.66232836 4279045389
15.053349 -8.2826929 0.66262013 4285493847
14.96734 -8.3554173 0.66116136 4286020691
14.888835 -8.4318323 0.66003084 4285954899
14.830751 -8.5195446 0.65977556 4285823312
14.784242 -8.6139059 0.66003084 4284704582
14.700137 -8.6861553 0.65871793 4294964707
14.636275 -8.7700262 0.65828031 4294832864
29.479301 12.863174 0.81623948 4283715655
29.416193 12.621341 0.81250381 4280622099
29.339256 12.375717 0.80845273 4281609511
28.976919 12.013961 0.79695457 4281215269
28.880669 11.766901 0.79251546 4282002727
28.91613 11.57498 0.79156941 4288053628
27.803192 10.931974 0.76071358 4281805345
27.589041 10.652771 0.75341201 4281412900
27.179953 10.303603 0.74111336 4281874226
27.216431 10.126873 0.74043417 4281215782
27.28087 9.9607153 0.74050695 4287071098
25.849766 9.2587681 0.70205849 4279372549
25.903259 9.0989885 0.70198572 4279305984
25.977505 8.9463892 0.7024709 4279503109
26.101057 8.8101683 0.70424169 4282266924
26.379566 8.7242537 0.70999074 4282332721
26.446867 8.5668497 0.71035463 4283977033
26.543722 8.4186201 0.71149474 4283055161
27.224056 8.4509315 0.72748053 4282068518
27.360533 8.3095884 0.72963947 4282989620
27.507793 8.1703033 0.73208952 4283384894
27.650532 8.0284081 0.73444253 4283187776
27.757938 7.8752432 0.73592222 4282332208
27.853907 7.7181244 0.73713511 4283648581
26.322943 7.1202126 0.69747376 4283518022
26.306208 6.9427452 0.69596982 4283846473
26.351217 6.78195 0.6960426 4284632656
26.449543 6.6344872 0.69747376 4280159761
26.58881 6.4962769 0.69994807 4281082400
26.739042 6.3593831 0.70271343 4281609774
28.113846 6.5044155 0.73599499 4280756005
28.099585 6.3197227 0.73466086 4280361249
28.088999 6.136517 0.73344797 4280163870
27.963781 5.9296203 0.7294212 4280163870
27.925613 5.5643268 0.72672856 4281413426
27.765856 5.3555655 0.72194982 4282137147
27.752003 5.1764793 0.7208097 4282137658
27.803905 5.0098228 0.72131908 4282269498
27.718885 4.8190875 0.71848094 4281544496
27.644407 4.631568 0.71593392 4281412908
27.659475 4.4597883 0.71561855 4281216045
27.71102 4.293817 0.71622497 4281676598
3.9999549 0.59367204 0.13391897 4285624938
27.910078 3.9745846 0.71986365 4281017639
28.097385 3.8255162 0.72386616 4283452493
28.169897 3.6594837 0.72507906 4281347364
28.272184 3.4965093 0.72704393 4282925622
3.8283298 0.42481533 0.12926149 4288650138
3.82987 0.40121269 0.12923723 4287992978
3.0831335 0.30364245 0.11097118 4294177779
2.9435863 0.27161935 0.10752659 4284507750
2.9651172 0.25527555 0.10801174 4279046167
30.825705 2.474436 0.78618419 4286215786
2.4057357 0.17718302 0.0943304 4285097583
2.3110268 0.15591016 0.092001662 4286082669
2.3428717 0.14363889 0.092753656 4285819239
1.8306541 0.10070831 0.080285199 4284900958
1.805277 0.088188708 0.0796545 4287597701
1.780815 0.076027676 0.079048052 4287003509
1.7782508 0.064987868 0.078975283 4285621082
1.7776171 0.054044463 0.078951031 4284304967
1.7179513 0.041641913 0.07749556 4288712332
1.6971844 0.030705769 0.076986149 4282065438
1.6713506 0.019962858 0.076355457 4282854184
1.6564463 0.0096096937 0.075991586 4282919977
1.6554744 -0.00055462134 0.075967327 4282985770
1.6534405 -0.010700884 0.075918809 4282985770
1.6513444 -0.020822208 0.075870298 4282985770
1.6521851 -0.030972306 0.075894557 4283116843
1.678948 -0.041761752 0.076549515 4283116081
1.6057153 -0.04985125 0.074778706 4283712331
16.886183 -5.9195552 0.4699851 4281412906
16.831657 -6.0166631 0.4695242 4280690725
16.770939 -6.1112719 0.46891776 4280492835
16.704073 -6.2032743 0.46816579 4280756009
16.623619 -6.2897348 0.46707419 4280755496
16.569788 -6.3858662 0.46668607 4280492324
16.462357 -6.4607592 0.46491525 4280426529
16.404766 -6.5546026 0.46445435 4280558369
16.336454 -6.6438403 0.46372661 4280492322
16.275984 -6.7359271 0.4632172 4280492324
16.213156 -6.826746 0.46265927 4280623910
16.151663 -6.9178357 0.46214986 4280558115
16.088747 -7.008028 0.46161619 4281216297
16.035389 -7.1021624 0.46134937 4282335291
15.933167 -7.1741552 0.45979688 4282532670
15.852485 -7.2551455 0.45882657 4282401081
15.782289 -7.3404746 0.45814735 4280822051
15.707123 -7.4230809 0.45734686 4280821538
15.645958 -7.5119634 0.45693445 4280821022
15.571716 -7.5942411 0.45618248 4281149987
15.514971 -7.6847639 0.45591563 4281148707
15.444304 -7.7681394 0.45528495 4281082914
15.377652 -7.8532114 0.45477551 4281082660
15.305213 -7.9349971 0.45412058 4280557599
15.234119 -8.0171213 0.45351413 4280492576
15.169648 -8.1024389 0.45310175 4280032025
15.096795 -8.1829805 0.45247105 4280295194
15.045424 -8.2749767 0.45244679 4280624160
14.974288 -8.3559351 0.45188886 4280492324
14.908814 -8.4397793 0.45150074 4280492322
14.841143 -8.5221405 0.45106411 4280623394
14.773022 -8.6039877 0.45062745 4280821287
14.708761 -8.6878633 0.45031211 4280755748
14.642312 -8.7702456 0.44994825 4280427294
29.158712 12.715882 0.41354781 4280228374
29.004597 12.437426 0.41055709 4280821024
29.031532 12.238636 0.40992808 4280820769
29.115316 12.064098 0.41004679 4281018148
27.097071 10.840185 0.38238257 4280952610
26.34223 10.351179 0.37191501 4282794559
26.391254 10.183951 0.371737 4281083941
26.881512 10.184068 0.37717253 4280229401
26.549856 9.8725653 0.37218797 4280953378
26.129923 9.5343332 0.36612347 4281347115
25.995876 9.3050833 0.36370239 4281347113
25.993986 9.1248665 0.36296657 4280229137
26.056103 8.9674759 0.36304966 4281347358
25.117672 8.4725065 0.35061204 4279242506
25.170137 8.3185415 0.35062391 4283781194
25.225462 8.1654844 0.35068324 4288516485
25.34086 8.031394 0.35150212 4294240214
25.616962 7.9462581 0.3543267 4286609002
27.393293 8.3133307 0.37576023 4289635734
27.477339 8.1550493 0.37617561 4294439134
27.541265 7.990478 0.37635365 4283846722
27.616713 7.8289738 0.37668595 4282267690
27.791435 7.6945901 0.37825251 4281478691
27.947203 7.5534005 0.37959358 4281347364
26.506929 6.9899144 0.36135253 4281807919
26.525108 6.8209133 0.36105585 4282332721
26.567432 6.6582732 0.36106771 4285095766
26.5767 6.4875455 0.36068794 4294438369
26.011869 6.180809 0.35331792 4279110145
26.014233 6.01298 0.35289067 4280756005
26.041857 5.8512745 0.35278386 4280492576
26.932089 5.8779263 0.36316833 4280492576
27.000906 5.7196083 0.36357185 4280426783
27.263241 5.4264812 0.36592171 4280755748
27.309769 5.2617431 0.36608785 4280886562
27.338593 5.0935249 0.36605224 4281083943
27.347679 4.9217868 0.36579114 4281018150
27.387217 4.7556024 0.36590984 4284373333
27.41095 4.5866432 0.36585051 4284504399
4.0297446 0.64923358 0.08443743 4281742641
4.1048012 0.63550371 0.085291922 4281479471
27.553043 4.09057 0.36659819 4282398520
27.620192 3.9274831 0.36710849 4286740860
27.672504 3.7618408 0.36745268 4282069808
27.692093 3.5915885 0.36741707 4282003754
27.703682 3.4203806 0.36729839 4280687642
3.7834451 0.42038253 0.081173733 4288320911
3.7143507 0.3896558 0.080319241 4286742394
3.5594454 0.35135484 0.078444108 4286282358
2.8422163 0.24545696 0.069851704 4283387988
2.4710598 0.18293457 0.065401219 4284572250
2.3204935 0.15750168 0.063597292 4287400573
2.3583438 0.14553317 0.064036399 4285424992
1.9029239 0.10578769 0.058612745 4287202179
1.825637 0.090274073 0.057687044 4287667857
1.8181647 0.078726128 0.057592101 4284967259
1.8066225 0.067125626 0.057449684 4286741614
1.7570276 0.054500051 0.05685629 4286938993
1.7143451 0.042658221 0.056345966 4282266150
1.6845818 0.031582959 0.055989929 4282264097
1.6987417 0.021419279 0.056156076 4282723367
1.6668441 0.01079577 0.055776305 4283051050
1.6608794 0.00056734885 0.055705093 4283116843
1.6558521 -0.0095934942 0.055645756 4283116843
1.6517625 -0.019704785 0.055598281 4283116843
1.6576092 -0.029949214 0.055669494 4283247404
1.6633921 -0.040266134 0.055740699 4283248431
16.917267 -5.9337754 0.24877307 4281281060
16.857002 -6.0290475 0.24847637 4281215780
16.797146 -6.124146 0.24819154 4281018920
16.720821 -6.2128162 0.24770495 4281084713
16.658072 -6.3060908 0.24739638 4280624160
16.574284 -6.3909159 0.24682672 4280426783
16.484497 -6.4727569 0.24618585 4280624162
16.418472 -6.5633883 0.24585354 4280558628
16.345476 -6.650816 0.24543817 4280624421
16.28034 -6.7410388 0.2451296 4280558115
16.221161 -6.8334298 0.24490412 4280754469
16.14584 -6.918653 0.24447687 4280753699
16.086584 -7.0104012 0.24426325 4281281324
16.018581 -7.0980368 0.24394281 4281479217
15.939173 -7.1801729 0.24347995 4281480243
15.870269 -7.2665992 0.24315952 4280821798
15.799091 -7.3516059 0.24281535 4280951328
15.730184 -7.4372954 0.24250679 4280819742
15.663522 -7.523716 0.24223383 4280558369
15.581116 -7.6021447 0.24175911 4280689955
15.524321 -7.6927214 0.24162856 4280755494
15.453604 -7.7761455 0.24131998 4280492322
15.386901 -7.8612661 0.24107076 4280558115
15.317959 -7.9449415 0.2407978 4280360736
15.261844 -8.0350542 0.24070285 4280360736
15.192852 -8.1181803 0.24044175 4280360736
15.139238 -8.209342 0.24039429 4280492322
15.071937 -8.2929211 0.24016879 4280492835
14.999814 -8.3735476 0.23988396 4280624421
14.921181 -8.4501514 0.23951606 4280492835
14.851709 -8.5315847 0.2392787 4280427555
14.780938 -8.6119795 0.23902947 4280427555
14.718348 -8.6969156 0.23889893 4280558626
14.656131 -8.7819242 0.23878025 4280558367
28.683464 12.527794 0.014339514 4280164122
28.770821 12.356297 0.014331136 4280361501
28.840567 12.177195 0.014335325 4280229915
27.362165 11.355595 0.015508885 4280229915
26.269274 10.713509 0.016385039 4280032543
26.223127 10.507483 0.016468816 4280491806
26.232206 10.324774 0.016510006 4282069549
26.283873 10.159294 0.016518382 4278650624
26.355062 10.001377 0.016511401 4280032536
26.182598 9.752552 0.016685236 4280426780
26.096369 9.5384979 0.016793447 4280623392
25.045551 8.9805403 0.017615845 4280360473
25.095469 8.8250351 0.017619336 4280492059
25.150089 8.6712122 0.017618639 4280031253
25.235979 8.5279369 0.017594203 4280821800
25.266947 8.3660164 0.017609563 4281348396
25.330168 8.2148342 0.017600488 4284438861
25.444908 8.0798397 0.017553015 4290292116
25.607641 7.9588842 0.017469937 4290292118
25.832033 7.8551483 0.01734148 4281673508
25.228926 7.5029163 0.017815512 4281280293
25.147736 7.3111172 0.017907664 4279372295
25.197895 7.1583161 0.017903477 4280030226
25.244236 7.0043721 0.017901381 4281279780
25.339823 6.8637261 0.017862985 4280424984
25.430767 6.7211485 0.01782738 4280623645
25.560616 6.5879478 0.017763153 4280688925
25.656811 6.4451199 0.017722661 4280688925
25.7153 6.292326 0.017708698 4281149476
25.812763 6.1485586 0.017666111 4280622362
25.87923 5.9968324 0.017645167 4281806637
26.025776 5.8627648 0.017566279 4282531387
26.796846 5.863965 0.017040586 4280689953
26.747221 5.6813521 0.017101323 4279900436
27.237009 5.6109691 0.016776692 4280295708
27.309172 5.4513764 0.016749464 4280756007
27.101728 5.0649428 0.016942848 4280953386
27.200195 4.9108167 0.016894676 4280097818
27.180559 4.7352433 0.016929582 4283320394
4.2042747 0.70488626 0.033214901 4286675570
4.1729822 0.67333156 0.033240031 4281544483
27.224579 4.2281489 0.01695681 4280622881
27.275724 4.0648556 0.016938658 4280426011
27.30114 3.8975596 0.01693796 4280097815
27.381018 3.7376816 0.016898166 4280294429
27.433186 3.5734808 0.016877223 4284306010
3.8273151 0.42604941 0.03350253 4280753695
3.74632 0.39375108 0.033561174 4280754465
2.9085071 0.26938689 0.034151793 4283190859
2.865274 0.2476424 0.034183208 4285098596
2.4711971 0.18289798 0.034461066 4285163358
2.3156378 0.15703011 0.034570672 4286740848
2.3554828 0.14523819 0.034543443 4284042561
1.8151774 0.10047705 0.034921832 4281083684
1.8047736 0.088789791 0.03492951 4287532425
1.8182719 0.07828179 0.034920435 4287661441
1.8107237 0.066823393 0.03492602 4287264888
1.7381356 0.053419955 0.034976985 4283119668
1.7014425 0.041819297 0.035002816 4283119406
1.663674 0.030651845 0.035029344 4282592292
1.6648308 0.020456146 0.035028648 4282723368
1.6509253 0.010144571 0.035038419 4283051050
1.6399564 6.5739732e-06 0.035046101 4283116843
1.6429255 -0.010072257 0.035044003 4283116843
1.6368331 -0.02008356 0.035048194 4283116843
1.644678 -0.030268095 0.03504261 4282984229
1.6464607 -0.040406723 0.035041213 4282921006
1.7741243 -0.054342717 0.034951851 4282004282
16.936625 -5.9306026 0.023663063 4281543464
16.876371 -6.0260067 0.023680516 4281085223
16.808069 -6.1181598 0.023703553 4281413161
16.739271 -6.2097015 0.023726594 4281478954
16.665308 -6.298862 0.023753121 4281149989
16.594616 -6.3887858 0.023776859 4280953124
16.515999 -6.4751606 0.023806181 4281084710
16.449022 -6.5656309 0.023826424 4281150503
16.375072 -6.6528883 0.023851559 4281150503
16.309916 -6.7433062 0.023869708 4281479469
16.239656 -6.8312364 0.023891352 4280689183
16.169853 -6.9189525 0.023912296 4280689183
16.10417 -7.0080643 0.023929749 4281413935
16.028858 -7.092586 0.023954183 4281611829
15.955854 -7.1776776 0.023976523 4282007355
15.886047 -7.2638035 0.02399607 4281611567
15.812158 -7.3476586 0.024018411 4281279779
15.739647 -7.4317355 0.024039354 4280884764
15.671208 -7.5173612 0.024056809 4280753948
15.614 -7.60812 0.024065185 4281280293
15.548202 -7.6944695 0.024079848 4280886305
15.487293 -7.7829924 0.02409032 4280623133
15.390254 -7.85288 0.024128716 4280688926
15.3329 -7.9425654 0.024135698 4280623133
15.277681 -8.0332394 0.024140585 4280360736
15.220161 -8.1225939 0.024146868 4280360736
15.167398 -8.2144012 0.024148963 4280426529
15.081653 -8.2880497 0.024176888 4280558115
14.997324 -8.3619308 0.024203416 4280689953
14.928325 -8.4439487 0.024217378 4280754976
14.859753 -8.5259352 0.024230644 4280754976
14.795057 -8.609911 0.024240417 4280557597
14.743671 -8.7015457 0.024239022 4280755745
14.669409 -8.7795248 0.024255775 4280755999
27.579102 12.027051 -0.35223055 4279901207
27.702925 11.879275 -0.35294089 4280098586
26.325939 11.098096 -0.33262545 4280427294
26.351973 10.919129 -0.33204427 4280887845
25.057119 10.202929 -0.31305912 4280098586
25.035696 10.015564 -0.31189677 4280887581
25.056662 9.846035 -0.3113414 4279966216
25.055033 9.6683474 -0.31048903 4282992442
24.968018 9.4591694 -0.30847427 4279965460
24.919682 9.2664108 -0.30701485 4280360987
24.965734 9.1095619 -0.30687279 4280492574
24.991034 8.9454203 -0.30645952 4280623390
25.042622 8.7909164 -0.30642077 4280294425
25.115002 8.6436005 -0.30667907 4280032023
25.249048 8.516819 -0.30778977 4279900437
25.134682 8.3068247 -0.30552962 4279966230
25.176617 8.1496744 -0.3054134 4280163094
25.117483 7.9606023 -0.30394107 4280491544
25.235573 7.8279591 -0.30488387 4283714370
25.912725 7.8640294 -0.313382 4281477410
25.982538 7.7114263 -0.31367904 4281082914
26.107151 7.5744228 -0.31472516 4280754719
25.260387 7.1610208 -0.30273998 4280821024
25.296141 7.0037565 -0.30263665 4280950555
25.335743 6.8476276 -0.30259791 4280029966
25.393721 6.6963758 -0.30281746 4279044098
25.451763 6.5449195 -0.30304992 4281412648
25.51181 6.3937316 -0.30332115 4281543465
25.592329 6.2472692 -0.30387649 4281411879
25.72941 6.1136966 -0.30519384 4280952098
25.909651 5.9888091 -0.30709234 4280886305
26.416563 5.5958347 -0.31238753 4279637265
26.356375 5.4143262 -0.31114769 4279371785
26.410675 5.2567983 -0.31143183 4280162589
26.423777 5.0910525 -0.31118643 4280295204
26.436823 4.9255271 -0.31095397 4287137419
4.3199306 0.75045651 -0.02024848 4284109140
4.3333302 0.72542083 -0.020364717 4282134837
3.8790643 0.45510897 -0.014062159 4284110421
3.8718455 0.43019569 -0.013933007 4283254853
3.867451 0.40570083 -0.013842601 4285162080
3.8877795 0.3837291 -0.014075074 4284043086
2.8555551 0.26426861 -0.00065630674 4284307551
2.9203801 0.23415332 -0.001457043 4285689969
2.3503926 0.15952606 0.0059562121 4283517244
2.3084121 0.14246009 0.0065115616 4284833106
1.9128834 0.10633933 0.011638846 4284111188
1.7996472 0.088994429 0.013111165 4286807934
1.7961634 0.077778153 0.013162825 4288387733
1.8095969 0.0672355 0.01299493 4283583297
1.7709972 0.054930292 0.013498617 4281345822
1.7603052 0.043791495 0.013640683 4282264616
1.7155523 0.032156497 0.014221862 4282394664
1.6657252 0.021010486 0.014867617 4282788393
1.6618232 0.010764413 0.014919277 4282919464
1.648859 0.0005660376 0.015087172 4282919464
1.6548308 -0.0095873391 0.015009683 4283051050
1.653741 -0.019728849 0.015022596 4283051050
1.6545886 -0.029893938 0.015009683 4282854186
1.6613714 -0.040216751 0.014919277 4283380017
1.7390504 -0.052793901 0.013911901 4288580233
16.946297 -5.9439592 -0.19557066 4281544234
16.888796 -6.0404191 -0.19528653 4281347882
16.811018 -6.1292048 -0.19473118 4281544745
16.742163 -6.2207456 -0.19430499 4281741865
16.676559 -6.3130898 -0.19393045 4281544232
16.606722 -6.4034243 -0.19350424 4281149728
16.54571 -6.4967952 -0.1932072 4281347107
16.480469 -6.5881729 -0.19285849 4281412900
16.412874 -6.6782417 -0.19248396 4281478693
16.344797 -6.7677293 -0.19210942 4281610536
16.265182 -6.8519754 -0.19157989 4281873449
16.177797 -6.9323487 -0.19094706 4280952095
16.121208 -7.0254908 -0.19075334 4280822052
16.03483 -7.1052365 -0.19014633 4280888874
15.992755 -7.2043123 -0.19017215 4282007355
15.900064 -7.2802424 -0.18948765 4281676333
15.838777 -7.3700728 -0.18925518 4282004269
15.765234 -7.4538689 -0.18885481 4281280033
15.686753 -7.5348754 -0.18838988 4281477925
15.613265 -7.6178312 -0.18800242 4280952610
15.544726 -7.7028332 -0.18769246 4280952610
15.481986 -7.7904282 -0.18747291 4280689438
15.420537 -7.8784533 -0.18727918 4281281575
15.355928 -7.9646358 -0.18704671 4280623645
15.302345 -8.0563793 -0.18698213 4280426783
15.213821 -8.129385 -0.18641387 4280624162
15.151348 -8.215909 -0.18623306 4281084711
15.081377 -8.2981167 -0.18594892 4281018918
15.017954 -8.3836746 -0.18576811 4281348395
14.941868 -8.4618673 -0.18540649 4281216809
14.877527 -8.5464153 -0.18522568 4281874226
14.817032 -8.6330109 -0.18510945 4281282343
14.76206 -8.7227478 -0.18508361 4281413161
14.685102 -8.799284 -0.18473491 4281478441
24.493263 9.4572783 -0.62343961 4279768599
24.546156 9.3050413 -0.62331396 4280492324
24.694609 9.1884222 -0.62577671 4280953637
24.781509 9.0480413 -0.62660599 4280493087
24.934437 8.9308758 -0.62921953 4280558880
25.001028 8.7820206 -0.62954623 4280427294
25.163139 8.6658907 -0.63243616 4280229915
25.07778 8.1233015 -0.62607825 4280755748
25.089035 7.9571834 -0.62507308 4281742643
25.145981 7.8057585 -0.62529922 4280097818
25.236446 7.6643929 -0.62643009 4279834643
25.366129 6.6945958 -0.62291187 4280754978
25.392206 6.5350881 -0.62253493 4280690466
25.45413 6.3847561 -0.62311292 4280756259
25.490885 6.2279778 -0.62306267 4280689953
4.3831482 0.78877354 -0.075377375 4290163893
3.8632975 0.45272061 -0.061203998 4280489755
3.7596927 0.41717786 -0.058515076 4279702282
3.8089094 0.39901048 -0.059696186 4283716417
3.8510795 0.3795661 -0.060701396 4284571221
2.6765897 0.2137842 -0.03092223 4294769657
2.3538647 0.15882187 -0.022729818 4283319875
2.3508039 0.14412916 -0.022629298 4284767062
1.8855127 0.10376126 -0.010893542 4285624941
1.8182184 0.088829294 -0.0091846958 4287006855
1.8227243 0.077844419 -0.009285219 4287597703
1.7971938 0.065692618 -0.0086318366 4284239940
1.7585942 0.053453606 -0.0076517612 4284566334
1.7149166 0.04156629 -0.0065460391 4285223753
1.6831551 0.030442284 -0.0057418756 4280881676
1.6603193 0.019823384 -0.0051638819 4282658087
1.65941 0.0096289776 -0.0051387511 4282919464
1.6514404 -0.00055611751 -0.0049377121 4282919464
1.6424087 -0.010637286 -0.0047115423 4282985257
1.6483103 -0.020786099 -0.0048623197 4283116843
1.6531494 -0.030989699 -0.00498797 4283313197
1.6559262 -0.041205138 -0.0050633624 4283380019
16.98299 -5.953485 -0.41581479 4281939241
16.914135 -6.0461397 -0.41496035 4281743145
16.841024 -6.1368051 -0.41400543 4281807656
16.768377 -6.22715 -0.4130756 4281873451
16.691517 -6.3154197 -0.41204527 4281676072
16.630066 -6.4090915 -0.41144213 4281544486
16.562508 -6.5000563 -0.41068825 4281149474
16.480536 -6.5848713 -0.40955737 4281149476
16.412968 -6.6749501 -0.40882862 4281215269
16.343065 -6.7636838 -0.40804958 4280820512
16.261639 -6.847157 -0.40696898 4283056957
16.198181 -6.9377561 -0.40639099 4281543201
16.13331 -7.0274363 -0.40578789 4281149474
16.059725 -7.1129384 -0.40495858 4281479469
15.985695 -7.1978025 -0.4041293 4282466623
15.919413 -7.2857704 -0.40352616 4281412906
15.849934 -7.3719316 -0.40284765 4281149476
15.780901 -7.457942 -0.40219426 4281346086
15.70961 -7.5425181 -0.40149063 4281016608
15.639671 -7.6273766 -0.40083724 4281213986
15.57018 -7.7121053 -0.40020898 4281411878
15.505597 -7.7989631 -0.39973152 4281543464
15.431631 -7.8807731 -0.39900276 4282004015
15.369672 -7.9684105 -0.39862579 4281215269
15.30722 -8.0555849 -0.39824885 4280953124
15.240748 -8.1404085 -0.39777136 4281479722
15.167662 -8.2213869 -0.397118 4281413929
15.091527 -8.3003292 -0.39638922 4280361241
15.022854 -8.3830318 -0.39588663 4281346853
14.954603 -8.4656963 -0.39540914 4281806888
14.889373 -8.5498314 -0.3950322 4281938474
14.826265 -8.6349926 -0.39473063 4282004267
14.766977 -8.7222443 -0.39455473 4282071089
14.708035 -8.8096066 -0.39440393 4282005812
25.299713 7.0047455 -0.94876635 4279176713
4.6775613 0.90154648 -0.14206472 4286150772
4.546453 0.84738904 -0.13685003 4293911778
3.8101692 0.44703281 -0.10725007 4289242016
3.7333846 0.41482538 -0.10424881 4289438103
3.8243129 0.40117994 -0.10758772 4284964437
3.8475864 0.37976599 -0.10837556 4280887080
2.5789042 0.20681937 -0.060355358 4291678676
2.5103638 0.18583812 -0.057729259 4294440953
2.3599107 0.16017054 -0.05202686 4280951327
2.3269372 0.14360023 -0.050751321 4285819237
2.2070448 0.12263262 -0.046211913 4286741111
1.8035306 0.089185625 -0.031018026 4286876037
1.8080374 0.078289762 -0.031168088 4285294944
1.7805223 0.066161454 -0.030117646 4281938725
1.7938795 0.055635035 -0.030605353 4287991673
1.7472346 0.043469202 -0.028842114 4285555536
1.687521 0.031637389 -0.026591167 4285620053
1.6806889 0.021195756 -0.026328556 4282460455
1.6677966 0.010801718 -0.025840849 4282919464
1.662835 0.00056756218 -0.025653273 4283051050
1.6598094 -0.0096173445 -0.025540724 4282985257
1.6537237 -0.019728638 -0.025315631 4283116843
1.6535716 -0.029875325 -0.025315631 4282985259
1.6653451 -0.04031387 -0.025765821 4283576885
1.5422105 -0.046774533 -0.021151379 4280618770
16.991425 -5.9597888 -0.63922375 4281873962
16.938541 -6.0582128 -0.63858598 4281611819
16.875702 -6.1527896 -0.63757306 4281480233
16.810467 -6.2461267 -0.6364851 4281480233
16.742853 -6.3381877 -0.63532209 4281480233
16.663555 -6.4253407 -0.63370889 4281546026
16.58289 -6.511394 -0.6320582 4281743405
16.516644 -6.6026354 -0.63100779 4281348647
16.443422 -6.6906729 -0.62969476 4281940784
16.375286 -6.780355 -0.6286068 4281546026
16.296537 -6.8651853 -0.62710613 4281545513
16.226553 -6.9532413 -0.62598068 4282005294
16.153351 -7.0394993 -0.62474263 4281743154
16.064173 -7.1182389 -0.62286687 4282137658
16.002882 -7.2088747 -0.62215406 4282203453
15.933818 -7.2956977 -0.62114114 4281742641
15.867007 -7.3832097 -0.62024075 4281676847
15.786175 -7.4637704 -0.61877763 4281611054
15.718461 -7.5501075 -0.61787724 4281808433
15.646692 -7.6341419 -0.61682683 4281873712
15.581649 -7.7211299 -0.61607653 4281741613
15.517912 -7.8085065 -0.61540121 4281741613
15.44657 -7.8917542 -0.61442584 4281807406
15.382776 -7.9785619 -0.61378807 4281544234
15.315847 -8.063488 -0.61303771 4281610027
15.251981 -8.1497765 -0.61243749 4281807406
15.184118 -8.2336807 -0.61168718 4281938992
15.117552 -8.3180218 -0.61101186 4281609511
15.053142 -8.4033184 -0.61044914 4281873199
14.980428 -8.4837055 -0.60954875 4281676333
14.914227 -8.5674992 -0.60894853 4281347366
14.850153 -8.6523104 -0.60846078 4281807919
14.793343 -8.7412319 -0.60831076 4281807919
14.724857 -8.8231058 -0.60767299 4281808433
4.6612406 0.92947024 -0.20131175 4288321941
4.6668553 0.90085191 -0.20131175 4279440139
3.6909077 0.43376723 -0.14933908 4284635486
3.7540472 0.41787079 -0.15239336 4279898386
2.4808877 0.19893345 -0.087803043 4284241494
2.4591539 0.18200092 -0.086651437 4290689719
2.3834996 0.16166651 -0.082796045 4287464062
2.3465676 0.14468405 -0.080893382 4285161038
2.2327354 0.12386099 -0.075135335 4292068275
1.8115076 0.089125477 -0.053955726 4285556065
1.7890712 0.077005737 -0.052804112 4284175184
1.8074746 0.06670139 -0.053705372 4288058252
1.8078498 0.055609673 -0.053705372 4288189826
1.7582358 0.043254405 -0.051201873 4287200876
1.6825773 0.031013465 -0.047396556 4286804586
1.6657586 0.020468203 -0.046545364 4282263078
1.6678505 0.010260609 -0.0466455 4282722598
1.6628882 2.3083529e-05 -0.046395153 4282919464
1.659861 -0.01016398 -0.046244942 4282985257
1.6577698 -0.02032543 -0.046144798 4283116843
1.6516223 -0.030390941 -0.045844384 4283576366
1.6514049 -0.040524535 -0.045844384 4283249969
1.6740859 -0.051344708 -0.04699599 4286610295
18.998398 -6.3917918 -0.9679336 4294703610
16.982332 -5.9466043 -0.86508983 4282136884
16.92671 -6.0439777 -0.86408842 4282071087
16.854584 -6.135087 -0.86223584 4281874478
16.789465 -6.2283177 -0.86078382 4281742892
16.72851 -6.3227458 -0.85958213 4281545513
16.662369 -6.414866 -0.8581301 4281480233
16.582712 -6.5013108 -0.85597706 4281611306
16.513752 -6.5914621 -0.85442489 4281873708
16.458191 -6.6866508 -0.85362375 4281873708
16.371626 -6.768815 -0.85117036 4281807915
16.290199 -6.8524928 -0.84901732 4281677097
16.214788 -6.9381762 -0.84721482 4281808685
16.160921 -7.0327563 -0.846614 4281677099
16.098286 -7.1233006 -0.84556252 4281611308
16.030592 -7.2112913 -0.84426069 4281742640
15.946984 -7.2916617 -0.84210765 4281676847
15.877488 -7.3780112 -0.84075576 4281676847
15.810243 -7.4650617 -0.83955413 4281611054
15.741627 -7.5511336 -0.83830237 4281545261
15.671653 -7.6362076 -0.83700055 4281807919
15.596754 -7.7184925 -0.83544838 4281742126
15.529467 -7.8041825 -0.83434683 4281479468
15.461715 -7.8893375 -0.83324528 4281545261
15.390845 -7.9725766 -0.83199352 4281479468
15.318652 -8.0547791 -0.8306917 4281413927
15.260129 -8.1439199 -0.83019102 4281479720
15.186159 -8.2245607 -0.82883912 4281545513
15.121403 -8.3098907 -0.82803798 4281413929
15.064896 -8.3996 -0.82773757 4281414188
15.012204 -8.4913864 -0.8276875 4281479981
14.929498 -8.5659447 -0.82593507 4281545261
14.862845 -8.649354 -0.82513392 4281479981
14.788851 -8.7282057 -0.82393229 4281479981
14.726445 -8.8136559 -0.82343155 4281545261
4.8864527 1.0659008 -0.27399033 4280952624
4.8092175 0.98739618 -0.2682777 4289243304
3.68961 0.43225032 -0.19395149 4281215529
3.8280962 0.42466557 -0.20245832 4280492574
2.4446278 0.1805557 -0.1153408 4283057474
2.3949039 0.16212267 -0.11217402 4285360229
2.3609865 0.14528497 -0.11000073 4284436303
2.3967128 0.1327213 -0.11217402 4280883995
1.8262749 0.089988708 -0.076594293 4281146125
1.7879038 0.077112392 -0.074172638 4284370245
1.8332261 0.067790762 -0.076966859 4286608235
1.8286194 0.05638827 -0.076656386 4288580476
1.7700624 0.043725725 -0.072992861 4284630584
1.6864737 0.031326305 -0.067776985 4284105531
1.6766542 0.020855885 -0.067156047 4282198055
1.6787467 0.010579852 -0.067280233 4282657575
1.6757859 0.00027925294 -0.067093953 4282789161
1.675756 -0.010003181 -0.067093953 4282789161
1.673667 -0.02026061 -0.066969767 4282789161
1.6735113 -0.030529659 -0.066969767 4282854437
1.6732924 -0.040797558 -0.066969767 4282921006
17.001068 -5.8495846 -1.0813954 4280886304
16.919651 -5.9379253 -1.0784148 4281017639
16.852827 -6.0308695 -1.0764278 4280886305
16.772375 -6.1184282 -1.0735716 4280820769
16.698969 -6.2080092 -1.0712119 4280624159
16.598028 -6.2866683 -1.0670516 4280558366
16.537724 -6.3801303 -1.0656235 4280558366
16.480616 -6.4745502 -1.0644437 4280755231
16.401657 -6.5599833 -1.0618358 4281149476
16.311178 -6.6401758 -1.0584828 4281215269
16.242468 -6.7286744 -1.0566199 4281412648
16.162247 -6.8119278 -1.0540119 4280886305
16.088039 -6.8972044 -1.0518388 4280754978
16.024374 -6.9866138 -1.0504105 4280492574
15.956568 -7.073884 -1.0487341 4280624673
15.891934 -7.1622262 -1.0473058 4280558367
15.826818 -7.2500415 -1.0458777 4280295195
15.748557 -7.3314304 -1.0435803 4280491804
15.687036 -7.4202418 -1.0424626 4280754976
15.638512 -7.5150585 -1.0422763 4280623645
15.579549 -7.604744 -1.041407 4280689183
15.533488 -7.7006383 -1.0414691 4280426266
15.47079 -7.7881756 -1.0404135 4280491804
15.460038 -7.9020348 -1.0430214 4280952355
15.422777 -8.0027227 -1.0438286 4281083941
15.358371 -8.0892982 -1.042773 4280953124
15.289083 -8.1730309 -1.041407 4280689952
15.223732 -8.2585974 -1.0403514 4281018917
15.137797 -8.3326015 -1.0378677 4281084710
15.09597 -8.4306812 -1.0385506 4281150757
15.005748 -8.501502 -1.0358186 4281019428
14.946379 -8.5894365 -1.0353218 4281085221
14.87701 -8.6714344 -1.034142 4281874737
14.804622 -8.7513809 -1.0327759 4281348393
14.755781 -8.8451338 -1.0331485 4281611565
4.7869058 1.10738 -0.32949078 4285952902
4.8208508 1.0841199 -0.33157554 4290099653
5.0095878 1.0943598 -0.34549895 4288980393
5.0162082 1.0636008 -0.34549895 4286282358
3.6401064 0.44979969 -0.23649448 4290099627
3.6180377 0.42454255 -0.23463309 4281281824
3.8455515 0.4274084 -0.25153473 4282665285
2.4187229 0.16365163 -0.1436471 4292198337
2.2514734 0.13838138 -0.13106394 4285950056
1.9207207 0.10605414 -0.1062699 4279239688
1.8695433 0.091694139 -0.10239816 4286014566
1.8073052 0.077489279 -0.097707398 4285947735
1.776854 0.065243706 -0.095399238 4285355842
1.796159 0.054931428 -0.09681391 4286406217
1.7306663 0.042258263 -0.091899775 4287063120
1.706964 0.031184709 -0.090112828 4283907376
1.6911689 0.020505887 -0.088921525 4282263846
1.6802936 0.010055392 -0.088102497 4282525989
1.6693542 -0.00026086741 -0.08728347 4282592039
1.6593491 -0.010448079 -0.086538903 4282657832
1.6572593 -0.020606069 -0.086389996 4282789418
1.6580989 -0.030792246 -0.08646445 4282527271
1.654888 -0.040893782 -0.086241081 4282656296
1.7413249 -0.053661216 -0.092718802 4279569675
6.3790731 -0.82419479 -0.44288817 4286349443
6.3402967 -0.85877585 -0.44035664 4288387484
6.3566303 -0.90073705 -0.44199467 4285886319
6.2839007 -0.92981023 -0.43693164 4282335290
16.951683 -5.9391932 -1.3037553 4280821287
16.698215 -6.3146253 -1.295565 4280492576
16.615417 -6.4001212 -1.2920656 4280427040
16.541485 -6.4884791 -1.2893107 4280492574
16.480059 -6.5813489 -1.2875981 4280360987
16.44491 -6.6845975 -1.2880449 4280295194
16.353823 -6.7647948 -1.2840242 4280360987
16.285351 -6.853797 -1.281865 4280295194
16.220072 -6.9437828 -1.2800037 4280229915
16.1415 -7.0276542 -1.2770998 4280229915
16.077103 -7.117281 -1.2753873 4280229915
16.004936 -7.2031088 -1.2730792 4280229915
15.941394 -7.2924666 -1.2715156 4280295195
15.873741 -7.3796358 -1.2696542 4280295195
15.804716 -7.4658237 -1.2677183 4280295195
15.703841 -7.6552777 -1.2670481 4280097818
15.55139 -7.9385037 -1.2663037 4280097818
15.477595 -8.0209303 -1.2642188 4280229404
15.330495 -8.1849012 -1.2601981 4280163609
15.245789 -8.2602882 -1.2572944 4280295195
15.146753 -8.3272591 -1.2531992 4280295195
15.069244 -8.4054689 -1.2509656 4280295708
14.921717 -8.5649405 -1.2472427 4280295708
14.778562 -8.7256088 -1.2440411 4280295708
14.711909 -8.8084412 -1.2429242 4280361501
14.655027 -8.8969936 -1.2427008 4280361501
5.0820131 1.2408739 -0.41736642 4284967021
4.9257269 1.1707481 -0.40272525 4294703862
4.9658194 1.1481302 -0.40567082 4289176731
5.0466437 1.1342359 -0.41225502 4280623392
5.0213885 1.0962392 -0.40939608 4287927706
5.0319185 1.0662336 -0.40974262 4281941835
6.4840331 0.84125966 -0.53103042 4294506744
3.6800773 0.45469093 -0.28490284 4279836186
3.8153865 0.44764435 -0.29651183 4283125317
3.867569 0.42972097 -0.30084354 4282335039
6.5562296 0.68748736 -0.53570867 4294113264
6.4542413 0.63678622 -0.52643883 4294179309
6.5810366 0.60853904 -0.53718144 4294704366
2.1917202 0.14878277 -0.15347889 4285689455
2.1935863 0.13539302 -0.15356553 4280162078
1.9118764 0.10628356 -0.12896144 4281677111
1.9174677 0.094795465 -0.12939462 4288323744
1.8324162 0.079340175 -0.12194408 4284108103
1.8139528 0.067396417 -0.12029804 4284039732
1.7944168 0.055651579 -0.11856534 4284500541
1.771818 0.044075374 -0.11657276 4286275409
1.7252398 0.032335903 -0.11250096 4283514162
1.7005016 0.02144107 -0.1103351 4282068007
1.6846616 0.010907042 -0.10894895 4282263844
1.6837007 0.00056983827 -0.10886233 4282330152
1.672714 -0.0096951192 -0.10790934 4282527016
1.6646535 -0.019861583 -0.10721628 4282723627
1.6635042 -0.030057102 -0.10712964 4282723629
1.6603009 -0.040190589 -0.10686973 4282658865
1.792461 -0.054427207 -0.11839207 4282200630
6.4060593 -0.74913955 -0.52331996 4294967291
6.3380618 -0.78063434 -0.51777542 4294111724
6.3035126 -0.8156721 -0.51517636 4294966258
6.2944407 -0.85379845 -0.51482981 4293847005
6.3038778 -0.89450467 -0.51612937 4287201401
6.308126 -0.93462843 -0.51699567 4287859593
6.3042412 -0.97362095 -0.51716894 4291609542
6.288312 -1.0107032 -0.51630265 4285428341
17.03916 -5.9765329 -1.5326941 4280754976
17.004982 -6.0819774 -1.532954 4280821538
16.957048 -6.1824498 -1.532001 4280690212
16.898249 -6.2787457 -1.5300951 4280558630
16.848227 -6.3780804 -1.5290555 4280427042
16.599388 -6.635716 -1.5170133 4280492833
16.549133 -6.7336874 -1.516147 4280493087
16.403742 -6.9103494 -1.5103425 4280493087
15.945888 -7.4199157 -1.4918894 4280361501
15.543983 -7.9415264 -1.4803671 4280229661
15.485235 -8.0317068 -1.4794141 4280163868
15.248074 -8.268362 -1.4708374 4280229915
15.173487 -8.3488007 -1.4684982 4280229915
15.099358 -8.4291191 -1.4662457 4280229915
15.044752 -8.5201359 -1.4659858 4280098077
14.977505 -8.6038513 -1.4645131 4280098077
14.894303 -8.6780357 -1.4614809 4280295456
14.680963 -8.9196825 -1.4562827 4280164122
4.4546056 1.1763149 -0.42049789 4280296745
4.4482493 1.1454823 -0.41911227 4286086018
4.4310665 1.1121048 -0.41663796 4294377471
4.4378071 1.0848954 -0.41663796 4294310644
4.4947162 1.0696373 -0.42178452 4286147171
5.0207896 1.1624647 -0.47483373 4287465084
5.0472431 1.1360104 -0.4768132 4285623909
5.0453701 1.1031048 -0.47592247 4287795080
5.0014286 1.0613729 -0.4707759 4293125083
6.3033123 0.85952967 -0.59498626 4287928723
3.5732012 0.46441981 -0.32063472 4291611593
6.4960761 0.80477989 -0.61329615 4283191880
6.5068216 0.76560432 -0.61388999 4291745999
6.5005178 0.72445041 -0.61280131 4280693797
6.2891068 0.66180801 -0.59122533 4287997336
6.2910686 0.6230098 -0.59102738 4287008652
6.5484214 0.60799259 -0.6163643 4294572535
6.6368208 0.45225808 -0.62388617 4287205512
1.8791907 0.11563233 -0.14951144 4279767305
2.0895002 0.11583961 -0.17039461 4290362294
1.9192286 0.094495215 -0.15337136 4294638582
1.840241 0.07924182 -0.14545357 4281543464
1.800917 0.066455118 -0.14149468 4284962899
1.7714528 0.054466445 -0.1385255 4286081882
1.7498686 0.043042976 -0.1363481 4286278232
1.7311965 0.031943552 -0.13446763 4282858287
1.7064848 0.020997338 -0.13199332 4281412646
1.696631 0.010457928 -0.13100359 4281674791
1.6817367 3.6653597e-05 -0.12951902 4281806377
1.665784 -0.01019606 -0.12793545 4281872170
1.6656902 -0.020416927 -0.12793545 4282003756
1.6695131 -0.030707426 -0.12833133 4281937452
1.666309 -0.040879674 -0.12803443 4282004015
6.5802145 -0.2387948 -0.61715609 4287861649
6.5706716 -0.27882966 -0.6163643 4292532946
6.5787764 -0.3196224 -0.61735404 4291546047
6.5945764 -0.36095876 -0.6191355 4294967037
6.594224 -0.40153611 -0.61933345 4290163626
6.6075225 -0.44305232 -0.62091702 4284372815
6.6136117 -0.48423937 -0.62180775 4283320645
6.5410762 -0.51931024 -0.61487973 4280623908
6.592298 -0.56409216 -0.62032318 4293520108
6.5976315 -0.60534781 -0.62121391 4292796124
6.5898318 -0.64543146 -0.62081808 4294572276
6.5362592 -0.68070889 -0.6158694 4289965736
6.5705347 -0.72505158 -0.61972934 4282596402
6.4315376 -0.74970907 -0.60626912 4285755235
6.2529821 -0.76784474 -0.58884996 4285886557
6.2363095 -0.80467206 -0.58766228 4285491028
4.5913143 -0.62139386 -0.42307115 4294045153
4.5765772 -0.64802212 -0.42198247 4288386958
6.1731896 -0.91235125 -0.58291161 4292927964
6.1881289 -0.95339024 -0.58499002 4293388261
6.1772499 -0.99055499 -0.58449519 4294111978
17.018843 -5.9593868 -1.7557346 4281019430
16.968836 -6.0590162 -1.754349 4281085223
16.910767 -6.1555343 -1.7521715 4280953638
16.789274 -6.3457074 -1.7474209 4280756259
16.727734 -6.4400258 -1.7450455 4280756259
16.676786 -6.5381861 -1.7438579 4280756005
16.373718 -6.8876195 -1.729012 4280690214
16.218618 -6.9398155 -1.7168385 4280756007
16.126459 -7.0177617 -1.711494 4280756007
16.134964 -7.1395283 -1.7171353 4280624419
16.035496 -7.2134972 -1.7110981 4280558626
15.881105 -7.4985147 -1.7090197 4280295456
15.752108 -7.6754031 -1.7050607 4280229915
15.687769 -7.7635269 -1.7031802 4280164122
15.547884 -7.9332972 -1.6983306 4280295708
15.491844 -8.0248871 -1.6975389 4280295708
15.426459 -8.1114569 -1.6957573 4280098329
15.360596 -8.1975269 -1.6939758 4280229915
15.284631 -8.2778835 -1.6911056 4280361501
15.216108 -8.361927 -1.6891261 4280295708
14.853892 -8.7665863 -1.6777443 4280295708
14.788721 -8.8509207 -1.6764576 4280295708
4.3706241 1.2096102 -0.46832472 4284179553
4.4499226 1.2022039 -0.47664589 4290691777
4.3918662 1.1576574 -0.46910137 4284967786
4.3401709 1.1156007 -0.4623335 4294440690
4.3527184 1.0903974 -0.46299922 4285492323
4.4278793 1.0803894 -0.47087657 4290625206
4.4295902 1.0520523 -0.47032183 4285955962
5.0530729 1.1347567 -0.54021943 4285886056
5.0482883 1.1011896 -0.53888804 4288316550
5.0257821 1.0640199 -0.53555959 4280228632
6.2206001 0.88374233 -0.66348326 4291546823
6.1471214 0.83486199 -0.65460742 4293520352
3.5984507 0.46641228 -0.36713964 4293981681
6.416317 0.79134279 -0.68378687 4286088847
6.4279613 0.75276679 -0.68456352 4284311411
6.3781319 0.70729017 -0.67846137 4291416265
6.1530352 0.6441493 -0.65272129 4293125334
