# .PCD v0.7 - Point Cloud Data file format
VERSION 0.7
FIELDS x y z rgb
SIZE 4 4 4 4
TYPE F F F U
COUNT 1 1 1 1
WIDTH 1098
HEIGHT 1
VIEWPOINT 0 0 0 1 0 0 0
POINTS 1098
DATA ascii
16.148582 1.5898203 -0.9723587 4293520880
16.290216 1.5028962 -0.98061717 4294046706
16.405533 1.4120686 -0.98726118 4294901759
16.513378 1.3193259 -0.99347055 4294441210
2.4565723 0.18143599 -0.11608592 4281673502
2.3769794 0.16091219 -0.11105633 4287200888
2.3241272 0.14302289 -0.10770327 4285359708
2.4026921 0.13305144 -0.11254658 4282726198
1.9528775 0.096199997 -0.084480204 4286605917
1.8068496 0.077925406 -0.075352423 4286279012
1.8322287 0.06775409 -0.076904766 4285687651
1.8306146 0.056449369 -0.07678058 4287267186
1.8249398 0.045069296 -0.076408014 4284832067
1.7114214 0.031783953 -0.069329329 4285226322
1.6856362 0.020965528 -0.067714892 4281738276
1.6817409 0.010598028 -0.067466512 4282066726
1.6887608 0.00027840372 -0.067901172 4282263848
1.6847384 -0.010058885 -0.067652792 4282590760
1.679655 -0.02033449 -0.067342326 4283444783
1.6834903 -0.030714024 -0.067590699 4285483328
1.6852657 -0.041092265 -0.067714892 4287060046
1.7318689 -0.052874092 -0.070633292 4287325019
19.483088 -0.71849233 -1.1757778 4294769657
19.690119 -0.968216 -1.1893142 4294835967
19.817345 -1.0964047 -1.1976348 4294573311
19.955688 -1.2269261 -1.2067006 4294835709
20.134995 -1.362016 -1.2183741 4294901241
20.396996 -1.5055251 -1.2352637 4287662983
19.454372 -6.1641102 -1.2324694 4278392085
19.298609 -6.3763905 -1.2273157 4280629049
19.190083 -6.4714012 -1.2227829 4279180574
19.103769 -6.5731149 -1.2197403 4279508769
18.951008 -6.6508765 -1.2123511 4280364080
18.746332 -6.7085166 -1.2015468 4280166699
18.804207 -6.859674 -1.2081287 4279640105
18.560629 -6.9001465 -1.1947786 4279508773
18.503006 -7.0082459 -1.1937851 4282600783
18.416822 -7.1051202 -1.1909287 4279442205
17.894661 -8.5993099 -1.1980073 4284374624
17.833488 -8.7050066 -1.1974486 4286414464
17.493608 -9.213995 -1.1929157 4280758576
17.412098 -9.3079844 -1.1911771 4279639584
17.34413 -9.4089355 -1.190432 4279376413
17.204756 -9.4704189 -1.1846572 4279836964
15.342396 6.6971655 -1.212546 4281149476
15.316306 6.5741825 -1.2071106 4281478441
15.292044 6.4529357 -1.2018987 4281478950
15.269636 6.3333817 -1.19691 4282334000
15.350689 6.2568874 -1.200335 4280753689
15.460072 6.1911306 -1.2060683 4281674025
15.54788 6.1158681 -1.2100888 4290294703
15.668832 6.0526996 -1.21679 4291875263
15.783998 5.9861526 -1.2230443 4285690205
15.887718 5.9142447 -1.2284052 4285690474
15.938694 5.822124 -1.2295965 4291151553
15.648373 5.6074624 -1.20376 4289639089
15.55736 5.4673572 -1.1938573 4285692024
15.45485 5.3250074 -1.1831356 4278914830
15.34268 5.181251 -1.1717438 4278585349
15.225548 5.0378199 -1.1600541 4279177486
15.129057 4.9030957 -1.1500769 4278255872
15.028639 4.7688427 -1.1398764 4280887334
14.937624 4.6392617 -1.1304948 4281412908
14.85036 4.5124292 -1.1214856 4280952357
14.742988 4.3811612 -1.1109872 4281083430
14.633612 4.2511029 -1.1004143 4279438866
14.545262 4.1288185 -1.0915539 4280359711
14.462697 4.009645 -1.0832149 4280031257
14.40232 3.8978958 -1.0766627 4280097816
14.253383 3.7638631 -1.0633349 4278519296
14.205713 3.6581752 -1.0578996 4280031506
14.138909 3.5486012 -1.0510496 4281610025
14.048049 3.4342999 -1.0424126 4284110672
13.931102 3.3152437 -1.0318398 4290032812
13.913293 3.2209272 -1.028936 4287597701
4.8091764 1.0814917 -0.33068207 4294765804
5.0086136 1.0941466 -0.34542447 4290620327
5.0240121 1.0652573 -0.34609458 4292594622
14.383727 2.9599447 -1.0590909 4281744693
14.435847 2.8784599 -1.0616969 4282007866
14.528629 2.804388 -1.06743 4285099372
14.636731 2.7322145 -1.0743545 4287995295
14.736636 2.6574028 -1.0806834 4288719282
14.836173 2.5814676 -1.0870122 4287533725
14.94418 2.5058951 -1.0940111 4288388773
15.037047 2.4267097 -1.0998931 4289704633
15.138373 2.3478544 -1.1064453 4292468449
15.253101 2.2699029 -1.1140399 4294376447
15.332888 2.1857028 -1.1190284 4294441980
15.487305 2.1108494 -1.1296757 4294506744
15.539522 2.0209286 -1.1326541 4294769914
3.6272409 0.44820574 -0.23552656 4293454058
3.7616446 0.44144025 -0.24542928 4286546569
16.017103 1.7839288 -1.1659361 4294835447
16.090227 1.6921915 -1.1706269 4294835447
16.172752 1.6006068 -1.1760622 4294901494
16.282557 1.5106542 -1.1835823 4294769908
16.445513 1.4240636 -1.1951231 4294965743
16.47879 1.3251292 -1.1969845 4294634981
16.482634 1.2236966 -1.1966867 4285226071
2.2834141 0.15443093 -0.13352102 4287728777
2.3121877 0.14214468 -0.13560581 4283253570
1.8569976 0.10249669 -0.10150468 4284436817
1.8675513 0.091595195 -0.10224924 4285883233
1.7943535 0.076925568 -0.096739464 4285356366
1.774861 0.065169208 -0.095250331 4285092677
1.7572862 0.05371723 -0.093910106 4285487689
1.7545921 0.042858668 -0.093686737 4288054384
1.7189286 0.031411499 -0.091006301 4283382580
1.7101146 0.020748731 -0.090336196 4281408286
1.6743104 0.010015416 -0.08765576 4281739044
1.6713487 -0.00025977963 -0.087432384 4282001446
1.668324 -0.010498253 -0.087209016 4282394151
1.6662338 -0.020711312 -0.087060101 4283314224
1.6640813 -0.030899117 -0.086911187 4285283639
1.6758237 -0.041396298 -0.087804668 4286336327
1.6675638 -0.05143781 -0.087209016 4285551439
6.3434682 -0.81960112 -0.44020772 4288386966
6.3551202 -0.86078089 -0.44147348 4288057492
6.3497186 -0.89975893 -0.44147348 4278649350
6.3628216 -0.94147301 -0.44288817 4280362278
19.353178 -7.0482159 -1.5004696 4284707963
19.392775 -7.19771 -1.5070962 4286482567
19.295076 -7.2964635 -1.5028522 4294506993
14.928711 6.5104976 -1.3787452 4285752925
15.005918 6.4348717 -1.3822973 4283911238
15.124068 6.3759565 -1.3897477 4280688672
15.242977 6.3162136 -1.397285 4289769137
15.32112 6.2387204 -1.4010102 4294770687
15.439586 6.1767869 -1.4085474 4291680458
15.56899 6.1180043 -1.4171242 4285035365
15.621107 6.0280981 -1.4185103 4279440656
15.762144 5.9716635 -1.4282134 4279898906
15.82837 5.8859472 -1.4309856 4279702031
15.843597 5.7812033 -1.4290797 4278387972
15.652025 5.4946122 -1.4049953 4286680208
15.496099 5.3333077 -1.3875819 4286746254
15.399207 5.1945033 -1.375713 4286877840
15.320116 5.0633435 -1.3655769 4286877840
15.21441 4.9250669 -1.3531015 4286812047
15.084794 4.7810569 -1.338547 4286812047
14.929253 4.6311512 -1.32174 4286745741
14.893516 4.5200763 -1.3159355 4286811534
14.785351 4.3883576 -1.3036335 4286877327
14.681875 4.2598033 -1.2918512 4286811532
14.593678 4.1373043 -1.2815417 4286877840
14.506455 4.0165811 -1.2714056 4286811792
14.425999 3.8991644 -1.2619624 4287140757
14.32731 3.7783153 -1.2509599 4286482570
14.243125 3.6627948 -1.2413435 4284046945
14.190922 3.5566843 -1.2346727 4289244333
14.077951 3.4367063 -1.2226305 4294967295
4.8695097 1.157391 -0.39770049 4287598728
4.9376707 1.1416242 -0.40315843 4286808955
5.061224 1.1375116 -0.41355452 4283649107
5.0369616 1.0996379 -0.41078222 4292926184
5.0377665 1.0674723 -0.41026244 4282071875
14.375443 2.9532917 -1.2386578 4294901759
14.450939 2.876503 -1.2437693 4294770429
14.55147 2.8037992 -1.2511332 4294769916
14.637936 2.7274148 -1.2572842 4294901759
14.718128 2.6490157 -1.2629154 4294836222
14.869558 2.582176 -1.2748709 4294572796
14.982399 2.507165 -1.2834477 4294769916
15.064383 2.4259567 -1.2893388 4294441210
15.129195 2.3412466 -1.2937572 4294703610
15.247733 2.2638779 -1.3029404 4294703345
15.375751 2.1865444 -1.31299 4294769906
15.416516 2.0959165 -1.3154157 4294177779
6.4682255 0.83920968 -0.52964425 4293058017
3.6771111 0.45432475 -0.28464296 4294441462
3.8124182 0.44729641 -0.29625192 4293915116
3.8804412 0.43114987 -0.30196977 4294770165
6.5175877 0.68343771 -0.53232992 4291283390
6.4344125 0.63483107 -0.52470613 4290953396
6.5572281 0.60633892 -0.53510225 4291410094
16.464563 1.4200402 -1.3995374 4286609266
16.555389 1.3255867 -1.406728 4285097057
16.618851 1.2280899 -1.4115796 4288849059
2.0982876 0.1424567 -0.14533529 4280688936
2.0663083 0.12755959 -0.14247638 4285359725
1.9874748 0.11047087 -0.13554564 4294505982
1.8358749 0.09077815 -0.12229062 4285229167
1.7935989 0.077667646 -0.11856534 4283780427
1.7910548 0.06655053 -0.11830545 4284107588
1.806366 0.056019597 -0.11960495 4283252534
1.7548871 0.043657895 -0.11509999 4287791730
1.7242436 0.032317456 -0.11241432 4287989377
1.6915361 0.021330064 -0.1095554 4282660152
1.6986086 0.010994143 -0.11016183 4281477158
1.6886818 0.00057038164 -0.10929549 4281740071
1.68168 -0.0097491564 -0.10868906 4281935653
1.6835808 -0.0200918 -0.10886233 4282328869
1.6834258 -0.03042168 -0.10886233 4285550410
1.6832075 -0.040750414 -0.10886233 4288051058
1.6889005 -0.051260319 -0.10938213 4286672747
1.6805897 -0.061329771 -0.10868906 4294966520
6.3902278 -0.74728715 -0.52193385 4291809732
6.3113651 -0.77734464 -0.51543629 4288980635
6.2886925 -0.81375349 -0.51387686 4294901753
6.3023381 -0.85487014 -0.5155229 4294572789
6.3009186 -0.89408457 -0.51586944 4294506742
6.3051696 -0.93419021 -0.51673579 4293059549
6.3052254 -0.97377312 -0.5172556 4294375409
6.2833939 -1.0099124 -0.51586944 4294770168
6.3429151 -1.059448 -0.52167392 4293849066
14.930905 6.5206103 -1.5827308 4285423950
15.027322 6.4532218 -1.5888671 4287200613
15.111554 6.3798618 -1.5937167 4287726440
15.20464 6.3095255 -1.5995561 4285554758
15.298353 6.2386622 -1.6054945 4286543194
15.440721 6.1865039 -1.6166784 4280557842
15.561723 6.1244483 -1.6255859 4280426781
15.670478 6.0564756 -1.6332067 4279703319
15.828287 6.0061116 -1.6460731 4279834903
15.900801 5.8114219 -1.6460731 4279308561
15.745076 5.6452212 -1.6258827 4278912772
15.560697 5.4715791 -1.6028222 4278781955
15.481089 5.33707 -1.5909455 4279703319
15.405134 5.205339 -1.5795637 4281216558
15.297921 5.0647321 -1.5650147 4287992208
15.192408 4.9265594 -1.5507628 4290952633
15.109489 4.7974048 -1.538985 4290953146
14.992304 4.6591153 -1.5237433 4288585374
14.932071 4.5401092 -1.5145388 4287203721
14.850915 4.4160604 -1.503256 4287137928
14.732493 4.2826228 -1.4882121 4287270027
14.625443 4.1543407 -1.474455 4287468435
14.57395 4.0432348 -1.4665372 4286811275
14.428481 3.9076784 -1.4490191 4286942089
14.426212 3.812207 -1.4463469 4286811275
4.4386134 1.1429983 -0.41812253 4286350471
4.4426479 1.1150146 -0.41782564 4293323501
4.4494057 1.087734 -0.41782564 4294638589
4.4840679 1.0671004 -0.42069584 4286413946
5.0556879 1.1705531 -0.47839677 4285887859
5.0404482 1.1344793 -0.47612041 4284901218
5.0502305 1.1041687 -0.4764173 4289441192
5.0004549 1.0611662 -0.4706769 4294901757
14.381702 2.9621415 -1.4226924 4294373100
14.527441 2.8993647 -1.4356579 4294635758
14.585015 2.817914 -1.4397157 4294307047
14.652895 2.7378769 -1.4448622 4291017646
14.679212 2.6496854 -1.4458519 4290096538
14.824594 2.5821152 -1.4589163 4291609257
14.930442 2.5062668 -1.4680218 4284305980
15.066367 2.4341388 -1.4801954 4284172605
15.131168 2.3494382 -1.485243 4284433218
15.212226 2.2665277 -1.4919732 4286145635
15.283967 2.1814444 -1.4978125 4287071098
6.2776775 0.85602927 -0.59241295 4293588203
3.5692542 0.46390548 -0.32023883 4290097075
6.4802761 0.80281955 -0.61171257 4294637552
6.5097861 0.76595372 -0.61418688 4293719789
6.5133743 0.72588551 -0.61408794 4280104997
6.3118677 0.6642074 -0.59350169 4285635972
6.2989902 0.62379581 -0.59181911 4287602581
6.5523844 0.6083613 -0.61676019 4293717226
16.43786 1.4262884 -1.603317 4290887092
16.490938 1.3290009 -1.6077708 4287794821
6.5327015 0.48543271 -0.61379099 4294638328
6.6110086 0.45049459 -0.62131292 4294441462
1.8305252 0.11260733 -0.14466178 4283385419
1.9613345 0.10866211 -0.15762717 4285754987
1.8516463 0.091126338 -0.14664124 4294834678
1.8064401 0.07776475 -0.1420885 4282531127
1.7850068 0.065857641 -0.13991112 4285161820
1.7654852 0.054279003 -0.13793166 4285622622
1.7578268 0.043244071 -0.13713989 4284965969
1.7292068 0.031905487 -0.13426968 4286546294
1.7104648 0.021049049 -0.1323892 4281019690
1.7026013 0.010498862 -0.13159743 4280821800
1.6887023 4.1668536e-05 -0.13021182 4281019179
1.6767299 -0.010255343 -0.12902415 4281216045
1.6736504 -0.020508887 -0.12872723 4282137401
1.6754827 -0.030813027 -0.12892517 4282794551
1.6752623 -0.041093014 -0.12892517 4283779135
1.6113216 -0.049463738 -0.12259094 4286079842
6.5822034 -0.23886663 -0.61735404 4285492852
6.589561 -0.27962789 -0.61824477 4285624951
6.5787764 -0.3196224 -0.61735404 4294441462
6.5985513 -0.3611756 -0.61953139 4283979088
6.6001835 -0.40189794 -0.61992729 4285820010
6.6134796 -0.44345072 -0.62151086 4280490777
6.6294909 -0.48539919 -0.62339133 4279110151
6.5837317 -0.52268904 -0.6191355 4285625970
6.6012211 -0.56485415 -0.62121391 4284179035
6.5887132 -0.60453111 -0.62032318 4282075198
6.5937934 -0.64581877 -0.62121391 4282074428
6.5926752 -0.68657404 -0.62151086 4280559906
6.5388837 -0.72156453 -0.61656225 4282137398
6.441422 -0.75085944 -0.60725886 4287401352
6.2569332 -0.76832914 -0.58924586 4287861900
4.6157665 -0.59588075 -0.42514956 4284374874
4.6130095 -0.6243245 -0.42524856 4287138179
4.6090922 -0.65261763 -0.42524856 4293454307
6.1879559 -0.91453075 -0.58439618 4287399041
6.1841946 -0.9527849 -0.58459413 4294967288
6.1841283 -0.9916566 -0.58518797 4293192927
6.1435709 -1.0238642 -0.58172393 4283390797
16.009686 6.2879462 -1.8822534 4279901207
16.056313 6.1928129 -1.8832519 4279176975
16.116314 6.102623 -1.8859147 4278979848
16.150661 6.0025811 -1.8855819 4281217318
16.223602 5.9166484 -1.8899089 4281152044
15.829155 5.6630068 -1.8388726 4282074690
15.553196 5.4568748 -1.8021486 4282206022
15.529998 5.3419452 -1.7954916 4281942599
15.451357 5.2090931 -1.7823997 4282204742
15.336756 5.0658765 -1.7652026 4282533194
15.298524 4.9493465 -1.7571034 4283124303
15.159961 4.8019691 -1.7373545 4280491554
15.107502 4.6835527 -1.727813 4279899671
15.058921 4.5674038 -1.7188262 4280426015
14.968514 4.439877 -1.7050685 4281017641
14.747301 4.2759967 -1.6762218 4281149484
14.698676 4.1643 -1.6675678 4279439636
14.677017 4.0610471 -1.6621314 4278454281
4.4662333 1.2066089 -0.47853202 4287732377
14.405726 3.7963064 -1.6251855 4291939786
4.3026309 1.1059549 -0.4580065 4292401627
4.311264 1.0800165 -0.45822841 4287136901
4.4520173 1.0862768 -0.47365028 4292664540
4.4489288 1.0566436 -0.4725408 4294704636
5.0647092 1.1373689 -0.54155082 4284177502
5.0366364 1.0986488 -0.53755665 4288782501
5.0471725 1.0685469 -0.53800046 4294571506
14.386914 2.9530339 -1.6016644 4280294167
14.525632 2.888736 -1.615422 4283846473
14.578216 2.8063159 -1.6194162 4286085492
14.698728 2.7360888 -1.6311767 4289177252
14.798383 2.6607945 -1.6406074 4294111725
14.929976 2.5899847 -1.6536993 4294638573
15.015182 2.5099592 -1.6615766 4294835948
15.077399 2.4253557 -1.6669022 4293717731
15.162713 2.3437259 -1.6748905 4294901753
15.219082 2.2569125 -1.6796613 4294178541
6.1615624 0.87535882 -0.65682638 4292533718
6.1421976 0.83419353 -0.65405267 4288127893
6.3748732 0.82597494 -0.67968178 4285494895
6.4123716 0.79085642 -0.68334311 4294375158
6.3983488 0.74930072 -0.68123507 4291285957
6.3978872 0.70947975 -0.68068033 4287934875
6.1678615 0.64570051 -0.65438551 4288660393
6.2379737 0.61436534 -0.66181904 4286156924
6.4207482 0.59259939 -0.68190074 4287006583
6.4529786 0.55566221 -0.68511826 4287402111
6.4701352 0.51716471 -0.68667156 4287665802
6.4821076 0.47811237 -0.68767005 4286218107
6.4849186 0.43832994 -0.68767005 4284574313
6.4924459 0.39883536 -0.68822479 4286023556
1.9797392 0.10969857 -0.18340877 4282794302
1.9575444 0.096428961 -0.18085694 4284900958
1.8429214 0.079473332 -0.1679869 4281413402
1.8165591 0.067177974 -0.16499129 4285030477
1.8099835 0.055817571 -0.16421467 4285228116
1.8092984 0.044686347 -0.16410372 4284966224
1.7320333 0.03216207 -0.15544972 4286546294
1.7172918 0.021351947 -0.1537855 4281611829
1.7134151 0.010790309 -0.15334171 4281216558
1.7025172 0.00027750336 -0.15212128 4281282351
1.7074556 -0.010199765 -0.15267602 4281479730
1.695436 -0.020529194 -0.15134463 4281940279
1.7012401 -0.031041959 -0.15201032 4285031774
1.7030046 -0.041528892 -0.1522322 4286149996
6.5787349 -0.24235113 -0.69698977 4292601059
6.554287 -0.28172997 -0.69443792 4284571742
6.538538 -0.32125735 -0.69288468 4283392624
6.5582747 -0.36257926 -0.69532555 4281692029
6.544023 -0.40208116 -0.69399416 4283005317
6.5384579 -0.44202569 -0.69366127 4282934396
6.5187731 -0.48089263 -0.6917752 4289706450
6.5137186 -0.52072346 -0.69155329 4280764246
6.4995098 -0.55974245 -0.69033283 4280960603
6.4850669 -0.59860671 -0.68911242 4282669933
6.4723706 -0.63750976 -0.68811387 4282734694
6.4594417 -0.6762796 -0.68711531 4280299055
6.415659 -0.71151698 -0.68267739 4287797388
4.6423392 -0.54359746 -0.48385751 4288454037
4.6468072 -0.57304591 -0.48474514 4287270519
4.6363044 -0.60065299 -0.4839685 4286941554
4.6276078 -0.62842041 -0.48341376 4286875248
4.6138253 -0.65540451 -0.48230428 4287006835
4.6018524 -0.68253493 -0.48141664 4287597953
4.5975776 -0.71075851 -0.48141664 4291084728
4.5636945 -0.73421711 -0.4780882 4284243287
6.0343165 -1.0089641 -0.64506584 4288256411
4.7139478 -0.81787056 -0.49617285 4284835686
4.7919812 -0.86173731 -0.50560343 4291087048
4.8071213 -0.89494556 -0.50793338 4279967772
4.8112979 -0.92630434 -0.50904286 4286413429
4.8328156 -0.96123904 -0.51214939 4292793293
4.8716083 -1.0000712 -0.51725304 4291214514
4.8751025 -1.0320029 -0.51836252 4288583305
4.9211116 -1.073337 -0.52435374 4283060292
15.268215 4.9452648 -1.9523547 4282534728
14.922707 4.5315771 -1.8961062 4282929745
14.767579 4.3856692 -1.8724746 4283587675
14.796118 4.2955275 -1.8727207 4282666573
14.763004 4.1878633 -1.8650897 4286219134
4.4330673 1.2273526 -0.532359 4283257170
4.1914458 1.1327455 -0.50035775 4283915100
4.2165484 1.1118182 -0.50269628 4294637817
14.194359 3.5598924 -1.77684 4291415764
4.4319968 1.0818394 -0.52768195 4287729036
14.126914 3.3592565 -1.7628086 4281613374
14.09505 3.2604306 -1.7561622 4281810237
5.0446677 1.1335857 -0.60313112 4286150774
5.0476503 1.1017635 -0.60263878 4294899960
5.2125559 1.104332 -0.62270111 4284771413
14.388559 2.9583244 -1.7837325 4292599752
14.506685 2.889961 -1.79641 4292139977
14.592354 2.8140547 -1.8050257 4293059799
14.646418 2.7313812 -1.8097028 4294638318
14.759591 2.6588869 -1.8218879 4294703594
14.89491 2.5890169 -1.8369039 4294044888
6.1892538 0.99703079 -0.73938274 4293848790
6.2099657 0.96131539 -0.741229 4294967023
6.2196736 0.92377758 -0.74172127 4293125083
5.9766574 0.85018891 -0.7105816 4290561460
3.5195317 0.47815979 -0.40238461 4289114529
6.2169251 0.8067075 -0.73938274 4280561439
6.2650928 0.77390712 -0.74479836 4283255110
6.2845078 0.73718768 -0.74664456 4280035616
5.9949923 0.66590726 -0.70996618 4286620559
5.9733047 0.626414 -0.70676607 4287545008
6.3582425 0.62743902 -0.75427568 4292345342
6.4143457 0.59326738 -0.76079899 4289841360
6.4317069 0.55509567 -0.76252216 4285437089
6.4438949 0.51633596 -0.76362985 4288006365
6.4291272 0.47546658 -0.76141441 4287874001
6.4269729 0.43567276 -0.76079899 4285894807
6.4235821 0.39586207 -0.76006049 4284907914
6.4120183 0.35566825 -0.75833738 4287410617
1.8823911 0.092005745 -0.19560704 4280689955
1.8045945 0.077058502 -0.18588358 4285096538
1.8248675 0.06672217 -0.18834522 4284240716
1.831194 0.055708602 -0.1890837 4285228113
1.8384461 0.044644613 -0.18994528 4285295698
1.6928288 0.030623967 -0.17185223 4285559656
1.6830617 0.020110926 -0.17062142 4281678136
1.6841458 0.0097899307 -0.17074451 4280888620
1.6772275 -0.00054655352 -0.16988292 4281217585
1.6752077 -0.010826374 -0.16963676 4281743929
1.669156 -0.021034189 -0.16889828 4282204480
1.6689953 -0.031275544 -0.16889828 4284440667
1.668772 -0.041515715 -0.16889828 4285756524
6.3907914 -0.23418275 -0.75501412 4292410365
6.2196875 -0.26616773 -0.73396713 4292075752
6.2922788 -0.30795053 -0.74319828 4293458155
6.2496438 -0.34432271 -0.73815191 4292739057
6.2741585 -0.38429648 -0.74147516 4291094499
6.2538595 -0.4215886 -0.73925966 4292340203
6.2897544 -0.46278656 -0.74405986 4291487476
6.3639593 -0.50751042 -0.75366026 4283138457
6.3755569 -0.54782104 -0.75550646 4282545554
6.3691111 -0.58665788 -0.75513721 4279713886
6.3653913 -0.62572694 -0.75513721 4281425280
6.350575 -0.6636399 -0.75378335 4282145394
6.3493423 -0.70292079 -0.7541526 4287465086
4.7185006 -0.55200315 -0.55106747 4287727216
4.6894155 -0.57779598 -0.54786736 4286413152
4.6690502 -0.60439718 -0.54577494 4286479972
4.6170664 -0.62650812 -0.53974396 4287071857
4.6023264 -0.65329456 -0.53839004 4287071349
4.5697618 -0.67730945 -0.53482068 4287137916
4.5586543 -0.70427728 -0.53395909 4286743158
4.5473881 -0.73113436 -0.53309751 4289243296
4.516387 -0.75461388 -0.52977431 4294769655
4.696485 -0.8143093 -0.55303681 4294900465
4.7548914 -0.8545053 -0.56103712 4288846479
4.769073 -0.88729042 -0.56349874 4280555281
4.7752333 -0.91878337 -0.56497574 4282987571
4.7928677 -0.95270431 -0.56792969 4281870628
4.8015146 -0.98508304 -0.56977594 4289177501
4.8973303 -1.0360696 -0.58269954 4282533946
4.047565 1.1477739 -0.53572869 4286153856
4.0373435 1.1181582 -0.53329515 4290755512
4.071867 1.1008612 -0.53721583 4288253838
4.0852513 1.0776243 -0.53816223 4282664012
4.1138573 1.0582126 -0.54127175 4280889402
4.3403649 1.0881062 -0.57223183 4293192175
14.08709 3.4389374 -1.9402882 4283059789
14.098288 3.3501453 -1.9389361 4281612353
14.041348 3.2457271 -1.9281204 4280099108
5.0414987 1.1330799 -0.6667344 4293129202
5.009635 1.0936742 -0.66132653 4285103745
5.3390322 1.1312851 -0.70634705 4292533983
6.0207295 1.1220443 -0.79733449 4291940029
6.0323763 1.0859581 -0.79801047 4288122493
6.031117 1.0475677 -0.79692888 4293713868
6.0667486 1.0154468 -0.8009848 4286214229
6.0552564 0.97536778 -0.79855126 4282991162
6.1022525 0.94455814 -0.8042295 4283519323
6.1147938 0.9081161 -0.8051759 4289442237
5.8818789 0.83668721 -0.77232307 4288458151
5.9880266 0.81432647 -0.78624833 4292533714
6.2287321 0.80815136 -0.8186956 4283123267
6.2099729 0.76700401 -0.81545085 4281876808
6.2244034 0.73003942 -0.8168028 4285371539
5.8151622 0.64592004 -0.7600202 4286491817
5.931354 0.62199986 -0.77543259 4288135354
6.2407308 0.61573374 -0.81734359 4293787647
6.2197261 0.57515037 -0.81396371 4286024075
6.2270865 0.5373165 -0.8145045 4291819764
6.2312541 0.49917677 -0.81463969 4290969081
6.2677956 0.46341506 -0.81923634 4290114282
6.2497616 0.42354229 -0.81639725 4291295223
6.2116961 0.382691 -0.81085414 4290961370
6.2168951 0.34473395 -0.81125975 4286023045
6.2376957 0.30750707 -0.81382847 4278518534
1.793823 0.07767731 -0.20665967 4284109633
1.8041673 0.067034923 -0.20801164 4284305984
1.8263323 0.05663453 -0.21098597 4284966224
1.8197118 0.045256332 -0.21003959 4285295696
1.7040493 0.031943478 -0.19422157 4285230172
1.6913337 0.021327555 -0.19246401 4281216556
1.6805338 0.010881264 -0.19097684 4280756268
1.6795781 0.00056938856 -0.19084165 4281414196
1.6775684 -0.0097243777 -0.19057125 4281216817
1.6655883 -0.01987295 -0.18894888 4282072126
1.6624629 -0.030038048 -0.1885433 4283125068
1.6721528 -0.040480241 -0.18989527 4285230183
6.199492 -0.22727719 -0.80815023 4286684561
6.1960011 -0.26522744 -0.80787981 4292538595
6.143786 -0.30076641 -0.8009848 4293389023
5.9914489 -0.33016205 -0.78043491 4291942609
6.0061221 -0.36794972 -0.7827332 4292869631
6.1787286 -0.41660458 -0.80666304 4291092725
6.1108389 -0.44970509 -0.7977401 4282144355
6.0921617 -0.48593053 -0.79557693 4287934913
6.1700134 -0.5302642 -0.80666304 4281821819
6.1844034 -0.56974995 -0.80909663 4282153108
6.186707 -0.60826802 -0.80990779 4282282899
6.1887712 -0.64683586 -0.81071895 4280041299
6.186655 -0.6850155 -0.81098938 4284773232
4.7130666 -0.55105418 -0.60914057 4286676073
4.7076292 -0.57972032 -0.60887015 4286676851
4.6921926 -0.6070683 -0.60724777 4285955721
4.6549973 -0.63131756 -0.60265112 4286087570
4.6274924 -0.65652591 -0.59940636 4284441704
4.5684905 -0.67677182 -0.59183538 4284111438
4.5378141 -0.70070612 -0.58818501 4286677365
4.5353847 -0.72885096 -0.58845544 4287795332
4.5288734 -0.75633931 -0.58818501 4286874230
4.4997406 -0.7798816 -0.58480513 4286214508
4.7230659 -0.8484906 -0.61644119 4279636238
6.0211158 -1.1199715 -0.79733449 4282930272
5.9859138 -1.1514655 -0.79341376 4287071876
5.919456 -1.176388 -0.7851668 4280686865
4.7978802 -0.98406011 -0.62996083 4285686620
4.9119525 -1.0389136 -0.64672524 4283777596
5.9064803 -1.2872571 -0.78651875 4282991680
5.9062052 -1.3252102 -0.78760034 4280625183
3.7531295 1.0893871 -0.54344076 4285230960
3.9024653 1.1068629 -0.56553453 4293915371
4.4076653 1.2211381 -0.64256799 4286875265
4.0876045 1.1054149 -0.59204698 4281875276
4.0837913 1.0775343 -0.5904268 4288915646
4.2818909 1.1018034 -0.61988509 4293915385
5.0226254 1.1619693 -0.72917545 4284505959
4.9698339 1.1176605 -0.72004336 4287335550
4.9988222 1.0920054 -0.72343105 4286678121
5.0199418 1.0643933 -0.72564042 4286413419
5.8430572 1.2016991 -0.8498072 4283318836
5.8590508 1.1675655 -0.85113281 4287332985
5.8748446 1.1332809 -0.85245848 4287726716
5.8194618 1.0855914 -0.84303176 4286936414
5.8717618 1.058117 -0.84995449 4289894789
5.8956838 1.0251219 -0.85260576 4294962138
5.8833289 0.98581809 -0.8498072 4280947718
5.9263716 0.9556911 -0.85540426 4281935400
5.9858813 0.92765111 -0.8635053 4281282092
5.6920981 0.84633189 -0.81843412 4293062117
3.5087082 0.49925381 -0.48923752 4287998366
5.9784217 0.81410587 -0.85997033 4281683531
6.0186143 0.78200239 -0.86527282 4283002486
6.013483 0.74384201 -0.86379987 4282216564
5.8538876 0.6876272 -0.83920223 4284981902
5.6987491 0.63394731 -0.815341 4285379232
5.9454961 0.62453866 -0.851722 4290640369
6.0250053 0.59555233 -0.86306345 4282868834
6.0255914 0.55829805 -0.86262155 4293328892
6.0407281 0.52234 -0.86438906 4292279032
5.949173 0.47764724 -0.85024905 4290508783
6.0535884 0.44868469 -0.8654201 4290377455
6.0315576 0.40985101 -0.86173779 4291950837
6.0309973 0.37265077 -0.86129594 4281219120
6.042058 0.33613446 -0.86262155 4285425505
6.0262246 0.29817149 -0.85997033 4290491815
1.8055437 0.077412613 -0.23059356 4283261028
1.7852283 0.065556705 -0.22750044 4284833115
1.8063577 0.055249985 -0.23059356 4285097816
1.8135841 0.044339031 -0.2316246 4285098835
1.7188863 0.031410698 -0.21748462 4286348400
1.6864091 0.020444876 -0.21262401 4281084461
1.6914483 0.010129921 -0.21336046 4280887593
1.696424 -0.0002461031 -0.2140969 4281282353
1.7043031 -0.010699397 -0.21527526 4281413939
1.6962932 -0.021063818 -0.2140969 4282598213
1.6941543 -0.031436346 -0.21380234 4283585367
1.6978847 -0.041925825 -0.2143915 4284572001
5.6213593 -0.20514899 -0.7991389 4294769904
5.8354235 -0.24877809 -0.83124846 4291480756
5.8021731 -0.28304309 -0.82653511 4289441445
5.7756371 -0.31728786 -0.82285285 4293783534
5.7676578 -0.35235986 -0.82196909 4294638322
5.788085 -0.38926482 -0.82535678 4292270034
5.8220868 -0.42744482 -0.83080661 4293586921
5.790761 -0.46089041 -0.82653511 4294703597
5.8045774 -0.49784669 -0.8290391 4294966768
5.7925487 -0.53264022 -0.82771349 4279703830
5.7891712 -0.56817257 -0.82771349 4280889135
5.7698355 -0.60204434 -0.82535678 4280560170
5.7758641 -0.63852096 -0.82682973 4286284411
4.7255368 -0.5519914 -0.66996419 4286746502
4.7014446 -0.57844502 -0.66687107 4286612084
4.6703401 -0.60373789 -0.66274691 4286151544
4.6440043 -0.62933397 -0.65935922 4286678141
4.6312413 -0.65656978 -0.65803361 4286217840
4.6075559 -0.68208236 -0.65508777 4286480758
4.5700464 -0.70522058 -0.65007985 4286743930
4.5421948 -0.7294904 -0.64654487 4288191380
4.5229988 -0.75490832 -0.64433551 4291677643
4.5173073 -0.78247809 -0.64418823 4283453522
4.7197914 -0.84735864 -0.67556131 4294311157
5.7453341 -1.0676466 -0.83169031 4294569678
5.7503304 -1.1051171 -0.83345783 4294566595
5.7085142 -1.1334521 -0.82815534 4294962387
5.7218013 -1.1726234 -0.83124846 4286083161
5.717402 -1.2083228 -0.83169031 4289308311
5.7050476 -1.24233 -0.8309539 4283979337
5.7108297 -1.2803388 -0.83301598 4290558625
5.6961193 -1.3138008 -0.83198494 4290951578
5.6975756 -1.351007 -0.83345783 4291740330
5.6862955 -1.3852395 -0.83301598 4292068529
5.7141528 -1.4292165 -0.83861303 4294964199
5.6803656 -1.4578631 -0.83478343 4281481262
3.7634895 1.0915296 -0.59313691 4294964215
4.1614628 1.1792787 -0.65872401 4292596425
4.2514005 1.1766251 -0.67257369 4293782495
4.1336842 1.1167966 -0.65171951 4283518284
4.1309123 1.0888964 -0.65012759 4293321957
4.8347588 1.1169521 -0.76140285 4292796639
5.02069 1.1274871 -0.79101253 4286282358
5.0265484 1.096449 -0.79085332 4293322208
5.6068997 1.187004 -0.88541341 4287726718
5.6218143 1.1541661 -0.88668692 4288643446
5.6752682 1.1288915 -0.89432818 4289301112
5.6985688 1.0972195 -0.89703441 4293313455
5.7110171 1.0633171 -0.89798957 4292258963
5.7048025 1.0259838 -0.89592004 4292915589
5.7051539 0.98994827 -0.89496493 4293312659
5.6867776 0.95085484 -0.89098513 4281604619
5.6847072 0.91468936 -0.88971156 4281345582
5.6960664 0.88069612 -0.89066672 4293388263
3.4572015 0.51298928 -0.52484351 4285625967
5.6302042 0.79990393 -0.87824976 4292198044
5.6966376 0.77370894 -0.88827884 4283776556
5.6924658 0.73759931 -0.88684613 4284109633
5.6802278 0.70060378 -0.88413984 4283851593
5.6010728 0.65598178 -0.87060857 4283788878
5.6108799 0.62225443 -0.87156367 4293254080
5.6852884 0.59521151 -0.88302553 4291999644
5.6907988 0.56050944 -0.88334388 4293975233
5.6911817 0.52530885 -0.88286632 4293047710
5.6687236 0.48817784 -0.87872732 4292850582
5.6617708 0.45260003 -0.8771354 4292588441
5.6703486 0.41828692 -0.87809056 4293512629
5.6885691 0.38455075 -0.88063765 4294631883
5.6937776 0.34982052 -0.8811152 4280751109
5.6721592 0.31357133 -0.8772946 4283315505
5.6907392 0.27958414 -0.88000089 4281936423
5.6755795 0.24394161 -0.8772946 4281147934
1.8056258 0.066775985 -0.25262517 4284504666
1.7852789 0.05506102 -0.24928214 4284306509
1.8142047 0.044806466 -0.25389871 4284504903
1.723634 0.032007992 -0.23925306 4283847751
1.7277467 0.021479569 -0.23988982 4280887334
1.7011907 0.010716099 -0.23559164 4280756007
1.7071481 0.00027720025 -0.2365468 4281282351
1.7071177 -0.010197668 -0.2365468 4281545523
1.7020869 -0.020611253 -0.23575084 4281808695
1.695019 -0.030927021 -0.23463647 4283058762
1.6967711 -0.041375462 -0.23495488 4283914322
5.6740112 -0.20896889 -0.87681705 4292396193
5.6736088 -0.24382249 -0.87697619 4294963667
5.6670752 -0.27838799 -0.87618023 4294835183
5.6514597 -0.31239143 -0.87395155 4290098611
5.6464806 -0.3468805 -0.873474 4293318343
5.6452312 -0.38158673 -0.87363321 4293840827
5.653614 -0.41701767 -0.87538427 4294036917
5.6647258 -0.45280197 -0.87761301 4293707950
5.6628246 -0.4876363 -0.87777215 4293576625
5.6656246 -0.5229184 -0.87872732 4292655012
5.6564145 -0.55709112 -0.87777215 4292588960
5.6263785 -0.5890106 -0.873474 4289498740
4.8170729 -0.53413117 -0.74277735 4288779396
4.7803669 -0.55977154 -0.73736483 4287927436
4.6955171 -0.57905692 -0.72415191 4287797137
4.7104778 -0.61026871 -0.72717655 4287072636
4.6782756 -0.63530529 -0.72255999 4287400312
4.6410561 -0.65927505 -0.71714747 4287662968
4.617393 -0.68484122 -0.71396363 4287007092
4.5877376 -0.70923632 -0.70982462 4287204473
4.559906 -0.73360729 -0.70600402 4288651668
4.5407133 -0.75912952 -0.70361614 4287006845
4.5340242 -0.78663886 -0.70329773 4293387986
4.7487049 -0.85395145 -0.73927516 4289961854
5.6042595 -1.0434152 -0.88047844 4289497693
5.604537 -1.0790895 -0.88159281 4293771935
5.5949063 -1.1128801 -0.8811152 4294827963
5.5947413 -1.1485791 -0.88222957 4294959043
5.5885549 -1.1830907 -0.88238877 4291343533
5.0911961 -1.1104476 -0.80151922 4282531379
5.5909538 -1.2554764 -0.8852542 4293382586
5.5783358 -1.2886469 -0.88445824 4289961102
5.576087 -1.3242197 -0.88541341 4289501579
5.5640202 -1.3574728 -0.88477665 4290026893
5.5335603 -1.3860686 -0.8811152 4294500049
5.5555487 -1.427862 -0.88620937 4285753442
5.4674482 -1.441034 -0.87299639 4281351996
4.0921822 -1.1594231 -0.64710295 4286482570
4.0830951 -1.1839603 -0.6467846 4289770929
4.068182 -1.2067447 -0.64551103 4283453007
4.0179877 -1.2727739 -0.64089447 4288524963
3.6282477 1.1008652 -0.61873204 4293846756
3.6642137 1.0872798 -0.62402982 4285493344
4.1028728 1.1629965 -0.70076275 4282795079
4.1184769 1.1401681 -0.70230085 4290295733
4.1349063 1.1174492 -0.70400983 4290691259
4.6760182 1.1414707 -0.79595262 4287202181
4.7011461 1.1170901 -0.7991997 4290555563
5.0333261 1.1635249 -0.85713387 4285423185
5.0394092 1.1324028 -0.85696298 4293847005
5.0568509 1.103774 -0.85884285 4288122513
5.5782242 1.1818863 -0.95010209 4291541664
5.617219 1.1541873 -0.9557417 4293047963
5.6212959 1.1191212 -0.95522898 4292913810
5.62709 1.0844219 -0.9550581 4291141249
5.6229835 1.0478865 -0.95317823 4290154100
5.6205802 1.0117921 -0.95164013 4288641382
5.6237707 0.97677934 -0.95112747 4288839796
5.6238279 0.94127703 -0.95010209 4281934113
5.6246338 0.90596777 -0.9492476 4294439922
3.426687 0.52992821 -0.56250679 4294440438
5.6294804 0.83600706 -0.94822222 4282265118
5.6120691 0.7982536 -0.94429159 4286934871
5.6168613 0.76380354 -0.94429159 4286407506
5.6155801 0.72856295 -0.94326621 4284105783
5.6023436 0.69191515 -0.94019002 4283514936
5.6152906 0.65856147 -0.94172812 4281870112
5.5957236 0.62147921 -0.93762654 4284962121
5.5955124 0.586721 -0.93694299 4285816393
5.6029291 0.55276436 -0.93762654 4283642912
5.6474209 0.52219367 -0.94480425 4284433716
5.5749335 0.48099464 -0.93164515 4289369474
5.5905476 0.4478038 -0.9338668 4282000406
5.5951552 0.41363811 -0.93420863 4285421642
5.5956216 0.3791655 -0.9338668 4283579955
5.5988259 0.34488505 -0.93403774 4282922797
5.5919833 0.31003204 -0.93249965 4283054383
5.6124778 0.27663997 -0.93574667 4283318323
1.8262358 0.077996634 -0.27813348 4281346866
1.7981261 0.065727301 -0.27317744 4282201923
1.7866778 0.054325901 -0.27112669 4282001972
1.8214519 0.044221122 -0.27710807 4280029964
1.7310582 0.031341951 -0.26138553 4281084196
1.7164398 0.02053294 -0.25882205 4280229411
1.6869755 0.0098083448 -0.25369513 4280756009
1.687004 -0.00054292753 -0.25369513 4281216558
1.6810573 -0.010860099 -0.25266975 4281611316
1.6740625 -0.021092588 -0.25147349 4282006074
1.6739017 -0.031364046 -0.25147349 4283256654
1.6776175 -0.041729581 -0.25215706 4283585619
5.5909019 -0.20501813 -0.93147427 4292202700
5.59446 -0.23952912 -0.93232876 4279703331
5.6086311 -0.27461925 -0.93506312 4293982205
5.603889 -0.30886596 -0.9345504 4280823340
5.6077895 -0.34360528 -0.93557578 4287465864
5.5878806 -0.376818 -0.93249965 4293645516
5.623786 -0.41391009 -0.93916464 4282657309
5.6358733 -0.44958138 -0.94172812 4283248931
5.6359539 -0.4844065 -0.94224077 4283248420
5.6534796 -0.52087295 -0.94582963 4283314216
5.6393905 -0.55449396 -0.94394976 4283645497
5.6515622 -0.59072179 -0.94668412 4281938214
4.8800392 -0.54052979 -0.81270057 4283516733
4.8580365 -0.56829238 -0.80945355 4283189835
4.808496 -0.5924384 -0.80142134 4281151268
4.8008614 -0.62142658 -0.80073774 4292204232
4.6758876 -0.63447487 -0.7795465 4290952618
4.6553221 -0.66080379 -0.77664119 4288978057
4.6424084 -0.68805796 -0.77510315 4289440398
4.6157022 -0.71307594 -0.77117252 4289373837
4.6199951 -0.74278933 -0.77271056 4291084203
4.6095195 -0.77015042 -0.77168518 4280227081
4.6037364 -0.79825127 -0.7715143 4287724400
4.6229963 -0.83083528 -0.77578676 4290551965
5.6775804 -1.0560926 -0.96274853 4280555805
5.6574469 -1.0883065 -0.96035594 4280754978
5.669991 -1.1268369 -0.96377385 4279439116
5.619535 -1.1527056 -0.95608348 4279765254
5.6065726 -1.1859424 -0.9550581 4280357387
5.583786 -1.2169675 -0.95232373 4280819995
5.109921 -1.1466782 -0.86943853 4281871404
5.3466511 -1.2342503 -0.91284645 4282463543
5.5048347 -1.306357 -0.94241172 4282460455
5.4421496 -1.326818 -0.93267053 4283972403
5.3956714 -1.3506234 -0.92583466 4291409835
5.3891912 -1.3841951 -0.92617643 4289833366
5.3701153 -1.4144781 -0.92429656 4291611066
4.097074 -1.106374 -0.69717395 4285037180
4.0370255 -1.116796 -0.68760365 4281484356
4.0063953 -1.1348393 -0.68333125 4293784300
4.0372128 -1.1703635 -0.69016713 4287005540
4.0261765 -1.1939938 -0.68948352 4288187233
4.0216036 -1.2195325 -0.68999624 4284768055
4.0008678 -1.2401055 -0.68760365 4283850574
3.5353329 1.0969917 -0.65027303 4294770425
3.542938 1.075564 -0.65045613 4279243530
3.8802767 1.1519804 -0.71472198 4280296487
4.1610799 1.2075851 -0.76781911 4288914601
4.1192284 1.1680883 -0.75829822 4286808711
4.1282125 1.1433159 -0.75866443 4291611341
4.1541314 1.123094 -0.7623263 4290427065
4.1561913 1.0963302 -0.76141083 4280624932
4.5212131 1.1334273 -0.82897234 4294638322
5.3207788 1.2991546 -0.98093992 4287859572
5.1832666 1.2319396 -0.95310968 4287663995
5.0566301 1.1691186 -0.92747664 4285295724
5.2900763 1.1889282 -0.97068673 4294438118
5.0753984 1.108026 -0.92839211 4294698445
5.5293193 1.1715907 -1.0135306 4294367410
5.5431442 1.139026 -1.0148122 4280683264
5.5529218 1.1055682 -1.0153615 4280817423
5.5615311 1.0718473 -1.0157278 4280092675
5.5680037 1.0377022 -1.0157278 4283053885
5.701015 1.0263274 -1.039713 4280753974
5.7052684 0.990991 -1.0393468 4281415505
5.7034841 0.95466757 -1.0378821 4292603124
5.6859407 0.91590309 -1.0334878 4280897881
5.7147703 0.88460523 -1.0378821 4281625994
5.7045317 0.84721369 -1.0349525 4280772744
5.7018361 0.81108826 -1.0334878 4280904589
5.7008605 0.77529275 -1.0323893 4280838283
5.7064857 0.74042475 -1.0325724 4280641158
5.7060428 0.70479429 -1.0316569 4280838283
5.7073302 0.66942602 -1.0311077 4280638836
5.7054687 0.63374305 -1.030009 4284254873
5.712182 0.59903044 -1.0305583 4280769143
5.7089019 0.56329465 -1.0292767 4280837256
5.686799 0.52590287 -1.0245162 4280639867
5.6957955 0.49150613 -1.0256149 4287214011
5.696744 0.45639125 -1.0252486 4280164632
5.6945353 0.42106593 -1.0243331 4282266924
5.6970115 0.38611698 -1.0243331 4281940281
5.7247863 0.35272369 -1.0290936 4287994518
1.8652635 0.10370173 -0.30880368 4282266148
1.8540819 0.091674574 -0.30660656 4280816911
1.8349657 0.079450034 -0.30294469 4284042056
1.8196999 0.067608722 -0.30001521 4284767313
1.805341 0.055988029 -0.29726881 4287069037
1.7712526 0.044061434 -0.29086053 4288518017
1.7488822 0.032773741 -0.28664938 4285689694
1.721526 0.021701384 -0.28152275 4281150506
1.7068806 0.011045801 -0.27877635 4280887593
1.6911867 0.00057065487 -0.27584687 4281150765
1.6813276 -0.0097470339 -0.27401593 4281413937
1.6763209 -0.020003498 -0.27310047 4282137660
1.6751838 -0.030270845 -0.27291736 4283256141
1.6739836 -0.040524989 -0.27273425 4282796103
5.6905303 -0.20858662 -1.0214037 4281484376
5.68325 -0.2432465 -1.020305 4279972938
5.6521926 -0.27666974 -1.0148122 4288063920
5.6700211 -0.31242883 -1.0184741 4287864733
5.6709404 -0.34739411 -1.0190234 4288718752
5.639277 -0.38019788 -1.0135306 4286088574
5.6731133 -0.41746458 -1.020305 4287601559
5.6753454 -0.45265746 -1.0212206 4287470741
5.6636457 -0.48671401 -1.0195727 4287800219
5.6664267 -0.52199787 -1.0206712 4288064161
5.6748576 -0.55791157 -1.0228684 4287865499
5.6771936 -0.59333491 -1.0239669 4288521639
5.6705151 -0.62783355 -1.0234177 4278589225
5.6929197 -0.66570008 -1.0283612 4280897647
5.6692133 -0.69821388 -1.0246993 4285300354
4.7113128 -0.60954362 -0.8456338 4284441947
4.7181993 -0.63989443 -0.84764785 4281872934
4.7083445 -0.66800368 -0.84654927 4280623132
4.6992946 -0.69616032 -0.8456338 4281018401
4.6784182 -0.72242957 -0.84252125 4282268984
4.6486611 -0.74706447 -0.83776081 4282731078
4.6265354 -0.77265769 -0.83446515 4286086528
4.5209689 -0.78356266 -0.81542337 4287402388
4.5180111 -0.81163579 -0.81578958 4287662991
4.4974818 -0.83646512 -0.81286007 4289633183
4.4739227 -0.86051583 -0.80938131 4287725435
4.4859147 -0.89140147 -0.81267697 4285950556
4.4678411 -0.91634089 -0.81029677 4291216559
4.4467454 -0.94048172 -0.80736727 4293520088
4.4466543 -0.96900517 -0.80846584 4285030743
5.4612474 -1.2253426 -1.0032774 4292925654
5.4258475 -1.2524151 -0.99796766 4292334294
5.1751051 -1.2280138 -0.95146185 4278912772
5.0452194 -1.2299316 -0.9280259 4283583815
5.0528359 -1.2646856 -0.93095541 4279636748
5.116394 -1.3140117 -0.94468743 4283516482
5.1177421 -1.3478851 -0.94651836 4286343271
5.2821121 -1.4259049 -0.97984141 4289571232
4.0661321 -1.1243721 -0.74658024 4285036137
4.0506434 -1.146889 -0.74493241 4284242256
4.0303106 -1.16789 -0.74236906 4281280797
4.108839 -1.2180315 -0.75903058 4283127876
3.3511291 1.0857345 -0.65946966 4288783262
3.3605328 1.0660428 -0.66005337 4294769387
4.1082244 1.2207335 -0.81085038 4289177773
4.0996251 1.190847 -0.80754256 4282926665
4.1313872 1.1726401 -0.81260157 4289701797
4.1366143 1.1467437 -0.81221241 4286739318
4.1530404 1.1239053 -0.81415814 4293055448
4.1522717 1.0963961 -0.81260157 4291082946
4.1703186 1.0738358 -0.81493646 4293649628
5.256577 1.3195159 -1.0357811 4287002204
5.1712031 1.2643859 -1.0167125 4286605906
5.2857323 1.258093 -1.0385052 4280619781
5.0592403 1.1713766 -0.99083388 4292990656
5.2098675 1.172652 -1.0200204 4294103988
5.2495437 1.1477934 -1.026636 4294625954
5.3793001 1.1416532 -1.0515418 4294557835
5.3583436 1.1028843 -1.045899 4293835139
5.3765526 1.0722901 -1.048234 4291732083
5.4918566 1.0603147 -1.0702212 4293188809
5.6207108 1.0494874 -1.0949324 4281683554
5.642489 1.0177686 -1.0980457 4281223793
5.66119 0.98531681 -1.1005751 4293456639
5.6593904 0.94926226 -1.0990186 4282475373
5.7135243 0.92234498 -1.1087474 4280311678
5.708415 0.88561374 -1.1066071 4280574862
5.7147112 0.85071546 -1.1068016 4280445838
5.7188525 0.81549603 -1.1066071 4280314511
5.719861 0.77985966 -1.1058288 4280577683
5.7206483 0.7442416 -1.1050504 4280643727
5.7182927 0.70828092 -1.1036884 4280643725
5.7205825 0.67295116 -1.1032993 4281626762
5.720705 0.63740242 -1.1025209 4280507511
5.7206063 0.60187751 -1.1017426 4280314771
5.722239 0.56657153 -1.1013534 4279856781
5.7373281 0.53254008 -1.1036884 4279916396
5.7189894 0.49545956 -1.0994077 4288988871
5.6994343 0.4585453 -1.0949324 4289312167
5.7001839 0.42341986 -1.0945432 4278915594
5.6958251 0.38796818 -1.0931813 4283518282
5.6980982 0.35301197 -1.0931813 4282270527
1.8160436 0.10052557 -0.32148984 4283446574
1.8136874 0.089234136 -0.3209061 4283512884
1.7955816 0.077290244 -0.31720915 4283581499
1.790141 0.066050448 -0.31604168 4283582776
1.7699239 0.05441843 -0.31195557 4285029452
1.7888556 0.044028133 -0.31565255 4285886295
1.7400565 0.032113045 -0.3059237 4283715652
1.7127584 0.021078847 -0.30047554 4280623910
1.6971617 0.010461567 -0.29736233 4280953388
1.6873851 4.0719984e-05 -0.29541656 4281150765
1.6844108 -0.010296943 -0.29483283 4281479730
1.6764694 -0.020541452 -0.29327622 4282137660
1.6743504 -0.030792993 -0.29288706 4282664004
1.6711881 -0.040995933 -0.29230332 4283519824
5.7170243 -0.20762391 -1.0955162 4286742678
5.7097631 -0.24245054 -1.0943487 4284773505
5.6327276 -0.27382874 -1.0793663 4289115325
5.629962 -0.30833191 -1.0791717 4287338389
5.6808348 -0.34608087 -1.0896789 4287403662
5.5552878 -0.37268457 -1.0651622 4287930006
5.6849647 -0.41641051 -1.0914301 4288588197
5.687192 -0.4516722 -1.0924029 4288259489
5.6823587 -0.48639277 -1.0920137 4288193696
5.6812201 -0.52142876 -1.0924029 4288193696
5.6779146 -0.55627829 -1.0924029 4288127644
5.682199 -0.59191829 -1.0939596 4287601302
5.6843104 -0.62741697 -1.095127 4278194461
5.7008138 -0.66466463 -1.0992131 4279512395
5.660605 -0.69521505 -1.0920137 4279377711
4.7252192 -0.60998267 -0.9058038 4284508015
4.6961136 -0.6355505 -0.9007448 4279048998
5.7070661 -0.80780119 -1.1040776 4281159782
5.7000613 -0.84251744 -1.1036884 4281224805
5.6947842 -0.87747657 -1.1036884 4282404959
4.7275295 -0.75836372 -0.91047364 4281480761
4.7082739 -0.78494108 -0.90755498 4286415236
4.5158548 -0.78141803 -0.86980712 4284574834
4.4723539 -0.80219501 -0.86202407 4286348923
4.4933882 -0.83445066 -0.86727762 4283778886
4.4939628 -0.86311436 -0.8684451 4284503124
4.4799232 -0.88895655 -0.86669391 4281347882
4.4455547 -0.91053104 -0.86085659 4284968022
4.4168496 -0.93293226 -0.85618675 4286678640
4.4033742 -0.95834923 -0.85463011 4287994248
4.3859239 -0.98277903 -0.85229522 4287073663
4.369297 -1.0072509 -0.85015488 4286678390
4.2981277 -1.0186766 -0.83692366 4285099099
4.3022804 -1.0475801 -0.839064 4281414178
4.2738833 -1.0684928 -0.83458871 4282269487
4.2425423 -1.088366 -0.8295297 4286546292
4.2063751 -1.1066487 -0.82349783 4292531147
4.172986 -1.1252941 -0.81804967 4285228377
4.1499286 -1.1464419 -0.81474191 4282925620
4.1324329 -1.1689498 -0.81260157 4283386173
4.1355476 -1.1972817 -0.81474191 4286808436
3.2630355 1.0787629 -0.68534696 4291282879
3.2761099 1.0608302 -0.6867916 4292072125
4.018754 1.1930773 -0.84466845 4283979872
4.1039963 1.1910242 -0.86179757 4283519062
4.1187577 1.167955 -0.86344856 4293783273
4.1475358 1.1486657 -0.86819518 4293191387
4.1677303 1.1267691 -0.87108445 4288256909
4.1830807 1.1034205 -0.87294179 4282663992
5.2132301 1.340899 -1.0958267 4286872949
5.1843438 1.2996098 -1.0877781 4285618257
5.2292924 1.2768238 -1.0958267 4287919459
5.2379804 1.2449393 -1.0960331 4280027136
5.0720124 1.1726741 -1.0584729 4294370258
5.2127671 1.1715591 -1.0873654 4294298030
5.2255931 1.1408038 -1.0886036 4294363803
5.2545114 1.1133821 -1.0933503 4294954401
5.2765789 1.0842702 -1.0966523 4292719000
5.4865789 1.0923644 -1.1404037 4292796114
5.5306497 1.0658977 -1.1484524 4288790214
5.558248 1.0358849 -1.1529926 4284844449
5.5770183 1.0040134 -1.1556755 4285764514
5.6091037 0.97429401 -1.1612476 4279384406
5.6333117 0.9429267 -1.1651688 4280507260
5.6679726 0.91300994 -1.17136 4279984253
5.6850719 0.88001013 -1.1738365 4280115849
5.6932678 0.84554166 -1.1744556 4280117134
5.7215986 0.81389815 -1.1794087 4280248205
5.7352104 0.77996182 -1.181266 4280248718
5.7389183 0.74463069 -1.1810596 4281103766
5.7462921 0.70976305 -1.1816788 4280772740
5.7427649 0.67357969 -1.1800277 4281891734
5.7409549 0.63768232 -1.1787895 4280578447
5.7535172 0.60336238 -1.1806469 4280053906
5.7405577 0.56641585 -1.1771386 4280118672
5.7575655 0.53244233 -1.1800277 4279124318
5.7314787 0.49458286 -1.1738365 4280167982
5.7129478 0.45768824 -1.1692963 4283319103
1.8231264 0.13506907 -0.34606647 4285553478
1.823921 0.12388004 -0.34606647 4282595362
1.82367 0.11262623 -0.34586009 4282401332
1.8292116 0.10170486 -0.34689197 4282202673
1.8307787 0.090527214 -0.34709835 4282529838
1.8352101 0.079460546 -0.34792385 4283383602
1.8141513 0.067403749 -0.34338361 4284172343
1.7861683 0.055397544 -0.33739874 4283581228
1.7727802 0.044099104 -0.33450946 4284503864
1.7407333 0.032622829 -0.3276991 4284570435
1.6988297 0.021420369 -0.31882498 4280821024
1.7077352 0.011051138 -0.32068235 4280755748
1.7019 0.0005718235 -0.31944409 4281150765
1.7038283 -0.0098826438 -0.31985685 4281545523
1.6988436 -0.020277448 -0.31882498 4281611316
1.697709 -0.030683072 -0.3186186 4282335039
1.7023797 -0.04121897 -0.31965047 4283783249
5.7440281 -0.21055123 -1.1728046 4281150513
5.7152567 -0.24461856 -1.1670262 4290693312
5.6784649 -0.27795753 -1.1595967 4288523431
5.7098699 -0.31462732 -1.1666133 4286748562
5.6248178 -0.34456551 -1.1490715 4288917162
5.6509089 -0.38098297 -1.1550564 4287404950
5.6552954 -0.41615218 -1.1565011 4288392872
5.6896996 -0.4538033 -1.1643432 4288064420
5.6770592 -0.48786768 -1.1622795 4287932834
5.6788306 -0.52314138 -1.1633114 4287998114
5.6813569 -0.55855101 -1.1645496 4287338387
5.6729565 -0.59289175 -1.1635177 4288521123
5.7343712 -0.63490802 -1.1773449 4279115309
5.7167616 -0.66848958 -1.1744556 4280370274
5.7154651 -0.70391339 -1.1750748 4279978347
5.7139497 -0.73934639 -1.1756939 4279782515
5.7151232 -0.77518213 -1.1769321 4282868080
4.7192178 -0.6695472 -0.96581054 4284577920
5.7264738 -0.84841335 -1.1814724 4280500820
5.7230945 -0.88383323 -1.1818851 4282405979
5.6856833 -0.91380686 -1.1750748 4282731075
4.7805028 -0.79838407 -0.98273325 4283518527
4.7745495 -0.82753444 -0.9825269 4284504654
4.7770863 -0.85819972 -0.98417795 4281283640
5.6211429 -1.0455475 -1.166407 4281224543
5.5973263 -1.0766904 -1.1626923 4282471772
4.7815933 -0.95018214 -0.98871815 4287991956
4.7756729 -0.97950357 -0.98871815 4294964723
4.7839327 -1.0118263 -0.99181378 4285556063
5.0414953 -1.0986844 -1.0487733 4279503109
5.0098357 -1.1240265 -1.0434076 4280490006
5.0219126 -1.1591479 -1.0475351 4290160558
5.0232739 -1.1919737 -1.0493925 4294632940
4.3057556 -1.0496058 -0.89523029 4283843652
4.276454 -1.0703021 -0.89027733 4284173383
