# .PCD v0.7 - Point Cloud Data file format
VERSION 0.7
FIELDS x y z rgb
SIZE 4 4 4 4
TYPE F F F U
COUNT 1 1 1 1
WIDTH 1109
HEIGHT 1
VIEWPOINT 0 0 0 1 0 0 0
POINTS 1109
DATA ascii
5.5866485 1.0057464 -1.1577393 4279577927
5.616816 0.97563308 -1.1628987 4280234828
5.6439276 0.94470286 -1.1674389 4279576646
5.6554141 0.91098785 -1.1686771 4286548648
5.6918406 0.88105738 -1.1752812 4279574330
5.684557 0.84424853 -1.1725982 4280037712
5.7361293 0.81596416 -1.1825043 4279841361
5.7352104 0.77996182 -1.181266 4279645522
5.7330961 0.74387568 -1.1798214 4279118665
5.741437 0.70916367 -1.1806469 4280170326
5.7398496 0.67323798 -1.1794087 4283391085
5.7467895 0.6383301 -1.1800277 4279837750
5.7467051 0.6026485 -1.1792023 4280169812
5.7444525 0.56679994 -1.177964 4279842138
5.7439246 0.53118181 -1.1771386 4279840847
5.7519503 0.49634805 -1.1781704 4278587685
5.7148986 0.45784441 -1.169709 4286677367
5.7019868 0.42161641 -1.166407 4283778611
1.8502795 0.12566471 -0.35163859 4286866509
1.8568753 0.11466987 -0.35287684 4282590994
1.8575439 0.10327415 -0.35287684 4282263581
1.8405516 0.091008395 -0.3491621 4283247904
1.8479184 0.080008119 -0.35060671 4282985502
1.835663 0.06819842 -0.34792385 4285024056
1.8184426 0.056391541 -0.3442091 4284102950
1.821689 0.045305084 -0.34482822 4284431141
1.8189977 0.034072205 -0.3442091 4284365856
1.7604687 0.022183556 -0.3318266 4283381280
1.7184981 0.011118354 -0.32295248 4282724900
1.7165771 0.00057342451 -0.32253972 4281410079
1.7028499 -0.0098767467 -0.31965047 4281344292
1.6988436 -0.020277448 -0.31882498 4281674280
1.6928174 -0.030593554 -0.31758672 4281477410
1.6896633 -0.040908191 -0.31696761 4281411619
1.6864464 -0.051185276 -0.31634846 4281213989
5.5670438 -0.20405185 -1.1354507 4280820512
5.7328529 -0.24537289 -1.1707408 4281017637
5.7156019 -0.27977791 -1.1674389 4281413935
5.6795835 -0.31295639 -1.1602157 4285889142
5.6990423 -0.34911746 -1.1647561 4284176214
5.6245503 -0.37920403 -1.1494843 4285688170
5.6260204 -0.41399595 -1.1503098 4285952114
5.6945767 -0.45419258 -1.1653751 4286807936
5.6965566 -0.48954457 -1.166407 4286216826
5.6895485 -0.52412945 -1.1655815 4286217339
5.6930423 -0.55970061 -1.1670262 4286282106
5.69242 -0.59492725 -1.1676452 4286480250
5.6896353 -0.62995183 -1.1678517 4286677638
5.6788597 -0.66405493 -1.166407 4281019454
5.7242055 -0.70499039 -1.1769321 4280431431
5.7255945 -0.74085391 -1.1781704 4280234313
5.7141533 -0.77505058 -1.1767257 4280627781
5.708322 -0.80995983 -1.1765194 4285032562
4.726635 -0.70021278 -0.96828699 4283781984
5.7259951 -0.8842814 -1.1825043 4287000954
5.715631 -0.91862214 -1.1814724 4287523946
4.8075252 -0.8028993 -0.9885118 4281934614
4.7668371 -0.82619703 -0.98087597 4282858026
4.7664928 -0.85629576 -0.98190784 4282200104
4.7948174 -0.89179105 -0.98913085 4280886562
5.6088562 -1.0789092 -1.1651688 4280823081
4.7844725 -0.95075452 -0.98933733 4282071087
4.7727976 -0.97891355 -0.98809898 4282793272
4.8461556 -1.0249919 -1.0052282 4282134059
4.9153008 -1.0711732 -1.0215318 4281805348
4.9410958 -1.1085984 -1.0285485 4282265899
4.8989258 -1.1307504 -1.0209126 4282135853
4.3378196 -1.0292679 -0.90080243 4280952095
4.3190646 -1.0528512 -0.89811957 4279898893
4.3049288 -1.0774314 -0.89646852 4281738790
4.2735968 -1.0974957 -0.89110279 4281408798
4.247859 -1.1187117 -0.88697529 4282134059
4.2229662 -1.1399086 -0.8830542 4283643442
4.1866574 -1.1577119 -0.87665653 4283511595
4.1606464 -1.1780459 -0.87252903 4283314473
4.1401825 -1.1997391 -0.86963981 4281935394
5.0530157 -1.4980174 -1.0720936 4287009153
3.1048605 1.0469301 -0.69210976 4290227366
3.1927652 1.0548298 -0.71129137 4286016100
3.1629682 1.0234886 -0.70279044 4284765271
4.1176682 1.1671947 -0.91618592 4284440156
4.1209903 1.1408646 -0.91531402 4284438105
4.1533494 1.1224387 -0.92119926 4284042834
4.1705379 1.0996732 -0.92359698 4289176484
4.1970553 1.0791717 -0.92817444 4284110413
5.118978 1.2830503 -1.1389542 4281675040
5.140027 1.2548602 -1.1420058 4287660922
5.1523771 1.2244272 -1.1430957 4285620312
5.0903831 1.1767279 -1.1271837 4282659115
5.1203594 1.1506122 -1.1324151 4283709997
5.1616473 1.1266729 -1.140262 4284365356
5.1741915 1.0961952 -1.1415699 4284037422
5.1932478 1.0669825 -1.1444036 4282658865
5.4169655 1.0783985 -1.1938834 4280888373
5.4570208 1.0516111 -1.2015125 4280234050
5.484477 1.0220455 -1.2063079 4280234828
5.5136967 0.99252868 -1.2115391 4280300369
5.5437207 0.9628588 -1.2169886 4280300621
5.5716629 0.93253505 -1.2220019 4283522421
5.5888419 0.90019512 -1.2246176 4281810774
5.6318731 0.87171549 -1.2331185 4280104532
5.6680069 0.84173644 -1.2400936 4279580245
5.6856256 0.80873168 -1.2429273 4279842390
5.7146568 0.77712268 -1.2483766 4280039001
5.7212524 0.74229509 -1.2488126 4280038486
5.744103 0.70945287 -1.252954 4283915639
5.7551327 0.67499149 -1.2544799 4281611853
5.7514062 0.63880253 -1.2527361 4280102222
5.7358055 0.60146099 -1.2483766 4279776858
5.7694955 0.56923205 -1.2551337 4280038740
5.7544155 0.53210926 -1.2509923 4279776329
5.7507663 0.49620214 -1.2494664 4278787885
5.7245178 0.45856297 -1.2429273 4281873209
5.7184644 0.42277992 -1.2409655 4286540653
1.8378026 0.12374491 -0.37168959 4285287739
5.7125063 0.35191146 -1.2385678 4283451212
5.7116351 0.31669086 -1.237914 4285822329
1.8602389 0.09090925 -0.37626702 4283510312
1.8646618 0.079662398 -0.37713891 4282919709
1.8514618 0.067711569 -0.37408727 4284038701
1.8430629 0.056077249 -0.37212554 4283972393
1.8521533 0.044986188 -0.37408727 4286668612
1.8367819 0.033327527 -0.37059972 4286997830
1.7061843 0.020403273 -0.34139135 4286473040
1.7043254 0.0099212388 -0.34095541 4281277721
1.6965466 -0.00053938839 -0.33921161 4281541924
1.6906558 -0.010915434 -0.3379038 4281673511
1.6876292 -0.021254055 -0.33724988 4281739304
1.6874671 -0.031608753 -0.33724988 4281673510
1.6813874 -0.041820724 -0.33594203 4281280031
1.6752461 -0.05195928 -0.33463418 4281213729
1.6758709 -0.062272981 -0.33485216 4280951076
5.7385745 -0.24566929 -1.2431452 4280753695
5.6882195 -0.2784996 -1.2322466 4281412395
5.7019958 -0.31425273 -1.2357342 4285756016
5.7019081 -0.34935257 -1.2361702 4285032293
5.6499958 -0.38099369 -1.2250535 4285821039
5.6592317 -0.41651151 -1.2276692 4286938237
5.6653256 -0.45192468 -1.2296309 4286084213
5.6945343 -0.48942927 -1.236824 4285887859
5.6953115 -0.52471846 -1.2376959 4285888372
5.6929564 -0.5597496 -1.237914 4286084731
5.6903849 -0.59477162 -1.2381319 4286018936
5.6924491 -0.6303193 -1.2394397 4288849326
5.701076 -0.66670674 -1.2422733 4279772212
5.7162509 -0.70405751 -1.2466328 4279510075
5.7253737 -0.74086916 -1.2496845 4280037961
5.7226543 -0.77624744 -1.2501204 4289044914
4.7543802 -0.67483944 -1.0328014 4286937988
4.7192554 -0.69942808 -1.0258262 4282006336
5.7160773 -0.88279015 -1.2520821 4283124833
5.70959 -0.91769212 -1.2518642 4286673778
4.8114729 -0.80384058 -1.0498033 4281803027
4.7747164 -0.8278538 -1.0426102 4282922027
4.7589798 -0.85523897 -1.0402125 4282200620
4.8131342 -0.895477 -1.0537268 4280888624
5.5809941 -1.0736158 -1.2296309 4280234561
5.5551562 -1.104039 -1.2252715 4280104002
5.5272431 -1.133794 -1.220476 4281087049
5.4724388 -1.1575983 -1.2095774 4280491305
4.7576528 -1.0370915 -1.0478415 4281871917
4.752152 -1.0664779 -1.0480595 4282989370
4.760735 -1.0991255 -1.0515471 4281741110
5.3284264 -1.2645319 -1.1834207 4286546304
5.3053951 -1.2935072 -1.1799331 4294307560
5.0540328 -1.265182 -1.1239141 4286934632
4.9544783 -1.2726378 -1.1027707 4291144869
4.7738571 -1.2575589 -1.0628817 4282263074
4.7613401 -1.2855563 -1.0617918 4281342744
4.7025647 -1.3007097 -1.0500213 4280882963
4.1714239 -1.1815349 -0.92861038 4280027656
4.8465505 -1.4047418 -1.0872946 4288184184
4.8004098 -1.4233644 -1.0785757 4291471518
4.9457016 -1.4994804 -1.1145413 4288973437
4.9326792 -1.5286438 -1.1136694 4287532159
3.0759928 1.0589947 -0.72731507 4292068040
3.087044 1.0416561 -0.72846282 4283645501
3.0943017 1.0230001 -0.72869235 4280623133
4.0889187 1.1866502 -0.96420056 4288385426
4.0558577 1.1501244 -0.95433027 4283778374
4.0797224 1.129891 -0.958462 4280819228
4.1636252 1.1256597 -0.97728425 4283978573
4.1761003 1.10158 -0.9786616 4285227613
4.1912646 1.0781165 -0.98072737 4281540897
4.9899049 1.2508826 -1.1733116 4281276181
5.0012684 1.2211649 -1.1742297 4283117872
5.0048795 1.1895547 -1.1733116 4281671457
5.0063944 1.157508 -1.1719342 4280291345
5.0257478 1.129541 -1.1749183 4282132773
5.0439944 1.1011726 -1.1776727 4282003245
5.2268085 1.1075144 -1.2201377 4280362540
5.3183579 1.0928521 -1.2405668 4280365895
5.3488278 1.0649482 -1.2463053 4280432466
5.3820219 1.0372639 -1.2527324 4280367956
5.4093351 1.0081426 -1.2577823 4280763743
5.4422407 0.97975928 -1.2642094 4280369244
5.496098 0.95467299 -1.2756865 4286023072
5.5229716 0.92446506 -1.2807363 4281087827
5.5467968 0.89349908 -1.2850976 4280630363
5.5762215 0.86316836 -1.2908361 4280105564
5.596817 0.83122373 -1.2945087 4279908444
5.6153021 0.79878473 -1.2977223 4279842653
5.6442084 0.76759219 -1.3034608 4279908446
5.6661863 0.73519868 -1.3075925 4279707457
5.6879778 0.70256418 -1.3117243 4283784815
5.7115154 0.66991651 -1.3163151 4279708235
5.7271261 0.63614732 -1.3190695 4279775064
5.7609301 0.60413921 -1.3261852 4279645011
5.7751827 0.56983 -1.3287102 4279709261
5.7940774 0.53581643 -1.3323829 4279642950
5.7788315 0.4986659 -1.3280216 4282728783
5.7701406 0.46226633 -1.3252671 4285354318
5.7243352 0.42326739 -1.3137901 4282856242
1.8658271 0.12671737 -0.40113851 4288516234
1.88017 0.11610355 -0.40435207 4283976006
1.8750161 0.1042419 -0.40297481 4283845194
1.8746482 0.09268719 -0.40274528 4284964190
1.8780988 0.081308514 -0.40343392 4285029731
1.8668908 0.069352023 -0.40067941 4286014055
1.8458787 0.057236526 -0.39562955 4282853673
1.8384112 0.045717414 -0.39379323 4286603086
1.8415765 0.034490339 -0.39448184 4286733892
1.7171806 0.021647584 -0.36510071 4286538045
1.7182544 0.011116832 -0.36533025 4283380769
1.7134238 0.00057308056 -0.36418253 4281607456
1.6997691 -0.0098581789 -0.36096898 4281017121
1.7113554 -0.020429634 -0.36372346 4281345826
1.7014664 -0.030751837 -0.36142805 4281542176
1.6983267 -0.041119922 -0.36073944 4281345824
1.7038795 -0.05171838 -0.36211666 4281148447
1.7210376 -0.062815145 -0.3662484 4281148196
5.5732927 -0.23853277 -1.2756865 4280886829
5.7710114 -0.28249392 -1.3227422 4281083691
5.6904516 -0.31355602 -1.3041494 4280096789
5.6893921 -0.34852567 -1.304379 4285886832
5.6900601 -0.38362515 -1.3050675 4284243297
5.6575079 -0.41631517 -1.2979518 4282071869
5.6470857 -0.45040151 -1.2961155 4284966759
5.700459 -0.4898802 -1.3094288 4285953652
5.6983156 -0.52493763 -1.3096584 4285690480
5.6959558 -0.55998731 -1.3098879 4285689451
5.6943488 -0.59512889 -1.310347 4285228643
5.696394 -0.63070065 -1.3117243 4285361004
5.7417188 -0.67140967 -1.3234308 4279640875
5.7500491 -0.70817506 -1.3264148 4280627778
5.750422 -0.74406821 -1.3275626 4279773507
5.745748 -0.77933806 -1.3275626 4282993496
4.7290378 -0.67094129 -1.0865453 4284504927
5.7116818 -0.84622091 -1.3218241 4280104257
5.6717544 -0.8759011 -1.3135606 4282271325
5.6605077 -0.90975881 -1.3121834 4281608757
4.843627 -0.80893159 -1.1182219 4281540883
4.8069258 -0.83314866 -1.1106471 4282134053
4.8036389 -0.86297208 -1.1111062 4282397485
4.8059087 -0.89385474 -1.1129425 4281415225
5.5200238 -1.0618153 -1.2857863 4280628548
5.4838114 -1.0897824 -1.2786704 4280431427
5.4512787 -1.1181278 -1.2724729 4281022537
5.4100361 -1.144302 -1.2642094 4284901501
5.2821403 -1.1511468 -1.2350578 4280035644
5.331008 -1.1961113 -1.2486007 4282209130
5.3169303 -1.2272664 -1.2469939 4293982207
5.2685795 -1.2502017 -1.2371237 4290426802
4.7539735 -1.1589084 -1.1140902 4281806886
4.7647123 -1.1925478 -1.1184515 4282793262
4.817637 -1.2372605 -1.133142 4283053613
4.8570142 -1.2791955 -1.144619 4291076507
4.8556509 -1.3107497 -1.1462258 4282065186
4.8296933 -1.3355885 -1.1418645 4280554770
4.8148522 -1.363341 -1.1402577 4280291857
4.8568764 -1.4074917 -1.152653 4291936181
4.8565469 -1.4397568 -1.1547188 4288054133
4.8252678 -1.4627506 -1.1492099 4287527789
4.8310761 -1.4969405 -1.1528825 4283711290
4.8765454 -1.543892 -1.1664253 4290026648
4.62713 -1.4962069 -1.1069745 4288120444
4.5735002 -1.5099205 -1.0959566 4285947977
4.5595379 -1.5364001 -1.0948088 4284432930
4.5509453 -1.5646645 -1.0950383 4286737477
4.5366664 -1.5909482 -1.0938907 4288712296
4.5607281 -1.6308832 -1.1023836 4294372036
4.5396619 -1.6548356 -1.0996292 4294966495
4.5212111 -1.6796082 -1.0975633 4294502573
4.4935255 -1.7007706 -1.093202 4287328828
4.4993515 -1.7346137 -1.0973338 4287660111
4.4632568 -1.7522274 -1.0909066 4287729259
3.0657122 1.0757948 -0.76575923 4293714900
3.0740907 1.0575958 -0.76624072 4282854433
3.1568491 1.0644809 -0.78622186 4280357389
3.0969741 1.0231453 -0.76888883 4288388246
4.0758467 1.2368242 -1.0163658 4284967523
4.0647507 1.2062643 -1.011551 4282795839
3.9248064 1.1385341 -0.97351468 4288914331
4.0680428 1.1531132 -1.0086621 4282268470
4.8148923 1.3331702 -1.1990845 4285886821
4.8595209 1.3134868 -1.2084733 4284634185
4.8590431 1.2814151 -1.2063067 4284567104
4.2041502 1.0809979 -1.0365876 4285025596
4.8706365 1.220746 -1.2053437 4284630323
4.8761497 1.1903766 -1.2048622 4284695348
4.888083 1.1615578 -1.2060659 4284891438
4.8903899 1.1304492 -1.2048622 4283839782
4.9029155 1.101699 -1.2063067 4282525989
5.1286216 1.1194565 -1.2619168 4280955201
5.1866651 1.0988408 -1.2749165 4280433236
5.2560558 1.0799013 -1.2908051 4280893536
5.283524 1.0518038 -1.2961013 4280697182
5.3213277 1.0254325 -1.3040456 4280894561
5.3456483 0.99614429 -1.3086196 4280696406
5.3698082 0.96659619 -1.3131936 4285825946
5.4005008 0.937953 -1.3194526 4279971406
5.4166837 0.9065631 -1.3221008 4280303454
5.4873023 0.88381863 -1.3384708 4280304742
5.5031724 0.85176784 -1.3411189 4280436067
5.5207758 0.81984103 -1.3442485 4280500070
5.5401154 0.78800386 -1.3478596 4280040547
5.5746593 0.75805593 -1.3553224 4278921541
5.6061559 0.72733831 -1.3620631 4286546571
5.6307411 0.69542843 -1.3671185 4281679453
5.6493616 0.66256452 -1.3707296 4280169561
5.6803308 0.63089371 -1.3774701 4279841622
5.6927824 0.5969407 -1.3796368 4280104022
5.7224169 0.56457758 -1.3861367 4279841361
5.7364044 0.53044003 -1.3887848 4280365125
5.7521214 0.49631938 -1.3919144 4283845455
5.7695708 0.46218115 -1.3955253 4281741110
5.8129516 0.42978492 -1.4056363 4280164660
1.8374717 0.12372243 -0.41669163 4288577135
1.7732906 0.10843384 -0.40056229 4281474065
5.7995267 0.32158217 -1.4005808 4279243807
5.8023601 0.28603885 -1.4008216 4279637283
5.8117633 0.25076711 -1.4027474 4279440925
1.8326428 0.067011438 -0.41476575 4288122252
1.8126469 0.055132512 -0.40971029 4285487184
1.8342974 0.044541229 -0.41500646 4286340163
1.831625 0.033230681 -0.41428426 4287326021
1.7298905 0.020702999 -0.38900694 4287918928
1.7066913 0.0099366326 -0.38322929 4283117599
1.699926 -0.00053813501 -0.38154414 4281540636
1.7028024 -0.010985461 -0.38226634 4281280033
1.7162902 -0.021595165 -0.38563666 4281607969
1.7200072 -0.032195736 -0.3865996 4281672997
1.7120148 -0.042561218 -0.38467371 4281673510
1.7214229 -0.053359274 -0.38708106 4281279522
1.720093 -0.063885354 -0.38684034 4281082654
1.7342144 -0.075058177 -0.39045137 4280754718
5.7927628 -0.28359658 -1.3984143 4280887855
5.7705612 -0.31801751 -1.3933587 4281348396
5.7743144 -0.35377395 -1.3948032 4281742641
5.7778454 -0.38958845 -1.3962476 4280624423
5.7172666 -0.42077076 -1.3818034 4281020210
5.6758761 -0.45276412 -1.3721739 4280888371
5.7764649 -0.49645409 -1.3979328 4279572260
5.7762094 -0.53215504 -1.3986549 4280624950
5.7718697 -0.56749237 -1.3984143 4279835944
5.7740707 -0.60350144 -1.3998586 4280165679
5.7702594 -0.63891906 -1.3998586 4280495157
5.7469492 -0.67206192 -1.3950438 4280297012
5.7330837 -0.70612735 -1.3926365 4280691770
5.7103543 -0.73892868 -1.3880625 4279248962
5.6903238 -0.77186859 -1.3842107 4279905085
5.6576118 -0.80282044 -1.3772295 4287536036
5.6516194 -0.83737773 -1.3769886 4280499282
5.6339045 -0.87011635 -1.373859 4281023053
5.59971 -0.90005398 -1.366637 4281937458
4.86553 -0.8128584 -1.1834368 4281080595
4.78968 -0.83044457 -1.1656222 4282857004
4.7911816 -0.86101794 -1.1673074 4282331692
4.8134823 -0.89554167 -1.1742887 4281808443
5.4426961 -1.0470409 -1.334619 4281482058
5.3885689 -1.070967 -1.3225822 4279836722
5.3790436 -1.1034259 -1.3218601 4282599515
5.2658143 -1.1139355 -1.2948976 4279640375
5.3110404 -1.157582 -1.3081381 4281683556
5.2924728 -1.1876005 -1.3052492 4280234553
5.2623882 -1.2148173 -1.2994716 4293851635
5.2151699 -1.2376795 -1.2893606 4293653478
5.1763577 -1.2620757 -1.2814164 4292009169
5.1186118 -1.2813329 -1.2686573 4294244599
4.9724545 -1.2772509 -1.2332691 4278848790
4.8565812 -1.2793298 -1.2055844 4281215782
4.7418108 -1.2802886 -1.1781405 4282527018
4.763803 -1.3176324 -1.1858441 4283838250
4.7631001 -1.3489518 -1.18777 4284893507
4.7724471 -1.3832819 -1.192344 4294961375
4.6661553 -1.3835907 -1.1670666 4290224021
4.6102042 -1.3978441 -1.1547891 4282458653
4.6692224 -1.4470636 -1.1723628 4281207308
4.7074499 -1.4906179 -1.1846404 4284429106
4.6160178 -1.4929118 -1.1632148 4287454293
4.5588412 -1.5053931 -1.1506965 4285679399
4.4860501 -1.5119636 -1.1340858 4287327285
4.450069 -1.5303144 -1.1271044 4287591997
4.4451752 -1.5591958 -1.1283081 4288051266
4.4446645 -1.5897079 -1.1307155 4288512842
4.4585371 -1.6255883 -1.1369746 4289236813
4.4839649 -1.6660904 -1.1463633 4285813269
4.4718418 -1.6928853 -1.1458819 4287653428
4.462276 -1.7206411 -1.1461226 4286799910
4.4660907 -1.7536612 -1.1499743 4286541630
4.4940033 -1.7965142 -1.160326 4286809204
4.0394897 1.4734881 -1.0805277 4294440165
4.0256772 1.4405262 -1.0742217 4283318577
2.9980676 1.0522118 -0.78793132 4282660393
3.0438149 1.0473297 -0.79877752 4282529589
3.1125374 1.0496528 -0.81592971 4280359958
4.0744152 1.3184463 -1.0759873 4279508499
4.0981112 1.2983884 -1.0802754 4281877309
4.1004553 1.2714993 -1.0787619 4284900964
3.8699031 1.1481699 -1.0119189 4281081112
3.9846849 1.1556594 -1.0411785 4280686354
4.1201825 1.167585 -1.0759873 4284897616
4.7465353 1.3136123 -1.2434735 4285683274
4.7573085 1.2852203 -1.2442303 4280681472
4.7763338 1.2589645 -1.2472571 4285221181
4.3003626 1.1053722 -1.1171021 4284893499
4.7576313 1.1917946 -1.2381766 4285089071
4.7516928 1.1593697 -1.2346452 4285088558
4.7643661 1.1315331 -1.2361586 4284431151
4.7966762 1.1081574 -1.242969 4282460457
5.0016603 1.1232152 -1.2959391 4281150777
5.0046768 1.0916798 -1.2949301 4280895329
5.0529351 1.0697666 -1.3060286 4280106850
5.1598825 1.0593635 -1.3327659 4280894312
5.2108922 1.0365529 -1.3446211 4280368482
5.2570634 1.0122416 -1.3552151 4282471024
5.296473 0.98616278 -1.3640435 4283654009
5.3071856 0.95450181 -1.3653046 4281549409
5.3491731 0.92820364 -1.3748897 4280828768
5.3834004 0.90014976 -1.3824568 4280632933
5.4041085 0.86955941 -1.3864926 4280501349
5.4389882 0.84096575 -1.394312 4280433759
5.4737191 0.81197649 -1.4021314 4280759632
5.5054235 0.78218448 -1.4091941 4292991965
5.5350494 0.75177342 -1.4157523 4289896083
5.5606709 0.72053105 -1.4213015 4292068792
5.5755515 0.68770009 -1.4240761 4293388002
5.5969658 0.65550107 -1.4286164 4294833130
5.5951118 0.62050688 -1.427103 4294240739
5.658484 0.59240717 -1.4427418 4292463814
5.6697164 0.55843443 -1.4447597 4291147690
5.6826715 0.52452397 -1.4472821 4284434997
5.6944604 0.49039248 -1.4495522 4291277471
5.7388391 0.45875555 -1.4603984 4289961611
5.7386508 0.42332071 -1.4596417 4289829514
1.8483812 0.12521486 -0.44261712 4286080099
1.8539438 0.11416741 -0.44387829 4284702308
5.7715578 0.31905955 -1.4664521 4286670947
5.7424788 0.28212255 -1.4583806 4284894534
5.7508693 0.24717246 -1.4601462 4280485376
5.7532449 0.2119167 -1.4603984 4290946714
1.80918 0.055792965 -0.43151861 4288577905
1.8346401 0.045306791 -0.43807682 4286931271
1.8232735 0.033835817 -0.43504995 4287786580
1.7382987 0.021608379 -0.412853 4288248411
1.715175 0.010800992 -0.40679929 4284103981
1.7074677 0.00027717935 -0.40478137 4281539604
1.716146 -0.010253659 -0.4070515 4281542694
1.7160509 -0.02078354 -0.4070515 4281936680
1.7207285 -0.03140201 -0.40831271 4281936419
1.7321118 -0.042245343 -0.41133958 4281870630
1.7327871 -0.052902333 -0.4115918 4281344543
1.7517703 -0.064247124 -0.41663659 4281147681
1.7639111 -0.075535551 -0.41991568 4280753695
5.5743103 -0.2738246 -1.4144911 4279633152
5.3957124 -0.29823706 -1.3683314 4280223488
5.3715668 -0.32997268 -1.36253 4283445032
5.3761992 -0.36338308 -1.3642957 4280879105
5.4143996 -0.39935645 -1.3748897 4280618756
5.531456 -0.44214004 -1.4061673 4289961613
5.5797358 -0.4804756 -1.4195359 4289304451
5.690383 -0.52520525 -1.4492999 4287002468
5.6947575 -0.56087011 -1.4513179 4287726454
5.6998701 -0.59670931 -1.453588 4291213744
5.6961017 -0.63167179 -1.453588 4282002473
5.6950016 -0.6669485 -1.4543447 4280882714
5.6879215 -0.7015242 -1.453588 4283254349
5.6700749 -0.73466974 -1.4500567 4280758337
5.6386123 -0.76579869 -1.442994 4280627529
5.6184788 -0.79820335 -1.4389582 4290627034
5.5876312 -0.82882738 -1.4321477 4279442992
5.5728774 -0.86161762 -1.4296254 4280365377
5.5512447 -0.89318162 -1.4253373 4281281587
4.885211 -0.81675363 -1.2507885 4282987567
4.8257637 -0.83728004 -1.2364109 4282724908
4.8233919 -0.86738861 -1.2371676 4282660397
4.8208327 -0.8974995 -1.2379243 4282466114
5.2741823 -1.0154603 -1.3597554 4281285449
5.3741469 -1.0689533 -1.3880061 4282863713
5.047102 -1.0361118 -1.3027495 4278391838
5.3000379 -1.1219914 -1.3718628 4280233523
5.2599635 -1.1472709 -1.3630345 4279246879
5.2348866 -1.1754944 -1.3582419 4293062370
5.2077761 -1.2030176 -1.352945 4293258712
5.1720524 -1.2282398 -1.3453778 4291941320
5.0751114 -1.2381568 -1.3214152 4293124062
4.9519644 -1.2403461 -1.2903899 4281150773
4.9077101 -1.2613108 -1.2805526 4284311149
4.7146115 -1.2425565 -1.2306094 4282075465
4.8685088 -1.3151304 -1.2742466 4281543991
4.6943455 -1.2990277 -1.2293482 4291933334
4.6369438 -1.313822 -1.2159796 4288900417
4.6455235 -1.3471016 -1.2205199 4284491529
4.656652 -1.3813611 -1.2258168 4284492820
4.6397548 -1.4073793 -1.2235467 4287585341
4.6338043 -1.4366817 -1.2243035 4283638794
4.6165996 -1.4624565 -1.2220333 4284692769
4.6056976 -1.4901599 -1.2215289 4289427044
4.6093311 -1.5226423 -1.2250602 4283176711
4.4651136 -1.505439 -1.1879811 4286796076
4.4420667 -1.5280854 -1.1841975 4287650858
4.4335203 -1.5556331 -1.1844498 4287653418
4.4193368 -1.581177 -1.1831887 4287129643
4.4159145 -1.6105853 -1.1849543 4287262003
4.430438 -1.6467553 -1.1917647 4288249425
4.464592 -1.6907047 -1.2041245 4284630050
4.4721894 -1.7250334 -1.2091691 4285156641
4.5164609 -1.7740265 -1.2245557 4285486638
4.5171704 -1.8063775 -1.2278348 4290291864
4.0311379 1.5278946 -1.1356356 4280621600
4.0259714 1.4977454 -1.1314244 4294961384
4.0332732 1.4723521 -1.130898 4282460180
2.8770504 1.0299512 -0.79321295 4280751360
4.0246429 1.4134688 -1.1232651 4287395925
3.177695 1.0938987 -0.87638402 4283187768
4.0736761 1.3747796 -1.1324772 4285426271
3.939157 1.3024712 -1.091418 4285032801
4.0700502 1.318141 -1.1266868 4284570192
4.0881763 1.2963531 -1.1295819 4282201394
3.8316379 1.1891015 -1.0540437 4285754986
3.7493265 1.1383549 -1.0285133 4281347368
3.8940287 1.1562858 -1.0677301 4286148974
4.1456251 1.2034408 -1.1372148 4281541922
4.1482911 1.1766636 -1.1358988 4283184946
4.6267672 1.2819006 -1.269341 4285220154
4.6336145 1.253235 -1.2690778 4285417272
4.5927138 1.2119679 -1.2553914 4284233251
4.6234202 1.1897813 -1.2619714 4284893232
4.6465406 1.1653838 -1.2664458 4285023274
4.6470437 1.135247 -1.2646034 4284366637
4.6980324 1.1172128 -1.2769737 4281936683
4.9294271 1.140386 -1.3398784 4280428849
4.9655085 1.1166867 -1.3480376 4279048236
4.9939437 1.0909384 -1.3540913 4285431188
5.0033746 1.0608766 -1.3548808 4282669168
4.9984508 1.0278223 -1.3517225 4280827224
4.9961481 0.99543434 -1.3493537 4285234828
4.9642725 0.95744306 -1.3388257 4283784554
3.2857909 0.61242914 -0.87138325 4283786110
5.2870564 0.95263195 -1.4251552 4280697952
5.3108602 0.92331678 -1.4301559 4280893270
5.337357 0.89422417 -1.4359463 4280500053
5.3656015 0.86514854 -1.4422631 4281025122
5.3936892 0.83575988 -1.4485799 4280696669
5.4130292 0.8047803 -1.4525279 4281221473
5.4407873 0.77482069 -1.4588447 4283914598
5.4731598 0.74520242 -1.4664775 4282662212
5.4977193 0.71421999 -1.4720047 4281019969
5.5134869 0.68189657 -1.4751631 4281087049
5.5415206 0.65087211 -1.481743 4281151551
5.5875978 0.62155956 -1.4933238 4281084733
5.5970631 0.58786881 -1.494903 4280492081
5.5986443 0.55332464 -1.4943767 4287530115
5.6028948 0.51905078 -1.4946399 4280884509
5.5973244 0.48391262 -1.4922711 4278715146
1.8402077 0.14693496 -0.46316069 4285420888
1.8391504 0.1354979 -0.46263427 4285684053
1.8611224 0.12565354 -0.46842468 4286939787
5.6190686 0.3471179 -1.4954294 4280359711
5.61724 0.31241828 -1.4943767 4282595639
5.6296501 0.27847216 -1.4972718 4282924347
5.6167951 0.24329478 -1.4933238 4282857535
5.4109077 0.20107861 -1.4367359 4280683793
1.8124156 0.0554392 -0.45421189 4288642153
1.806935 0.044172175 -0.4526327 4287324224
1.7878807 0.032718521 -0.44736871 4287916359
1.7205215 0.020882126 -0.42894474 4287129666
1.7273703 0.010369931 -0.43078715 4283775268
1.7081065 -0.00023973134 -0.42552313 4281934616
1.7051786 -0.010704292 -0.42473355 4281542439
1.7089397 -0.021212121 -0.42578635 4281607717
1.7193878 -0.031887125 -0.42868155 4281804833
1.7288043 -0.042667985 -0.43131354 4281673762
1.7564747 -0.054117881 -0.43894634 4281279522
1.7971251 -0.077427089 -0.45026392 4280491303
1.801434 -0.088686652 -0.4515799 4281348924
1.8210855 -0.10084557 -0.4571071 4280624423
5.3034511 -0.3240948 -1.4090999 4284436817
5.301363 -0.35663012 -1.4090999 4284173131
5.3356371 -0.39182886 -1.4191015 4285947989
5.3581371 -0.42654538 -1.4259447 4284961861
5.4082866 -0.46393794 -1.4404207 4282659877
5.4399238 -0.50028706 -1.4498959 4281411615
5.5663714 -0.54635143 -1.4854279 4280293914
5.5657926 -0.58079553 -1.4862174 4280360222
5.5726724 -0.6160996 -1.4891126 4280558628
5.601368 -0.6540789 -1.4980614 4280296483
5.5694799 -0.68502635 -1.4904286 4280298028
5.5699563 -0.71980435 -1.4917446 4280560948
5.5510941 -0.75202769 -1.4877967 4280100657
5.5540175 -0.78715581 -1.4899023 4280034606
4.7044592 -0.69640255 -1.2569706 4282731866
5.5353575 -0.85393089 -1.4875335 4280495165
5.5128679 -0.88512981 -1.4827958 4278652189
4.9135227 -0.81998593 -1.3185593 4284038709
4.8228421 -0.8353219 -1.2948713 4282395942
4.8128781 -0.86404735 -1.2935554 4282199074
4.8473244 -0.90095717 -1.3046097 4281280031
5.2652111 -1.0119858 -1.4222599 4284374873
5.0705872 -1.006922 -1.3698832 4279768853
5.1919069 -1.0641379 -1.4054152 4285885541
5.1022139 -1.078437 -1.3822536 4284437066
5.0559077 -1.1011097 -1.3711993 4287330928
4.8852501 -1.0954214 -1.3254025 4291741882
4.7881866 -1.1045792 -1.3001354 4283061573
4.9615602 -1.1766388 -1.3506696 4285955192
4.9654956 -1.2097981 -1.3538281 4281152570
4.9664025 -1.2423482 -1.3561969 4280496184
4.9717693 -1.2761531 -1.3598816 4279839281
4.9330554 -1.298538 -1.3511961 4280036412
4.9026394 -1.3227561 -1.3448793 4279841083
4.8274755 -1.3343233 -1.3259289 4293392121
4.5509067 -1.2880558 -1.2498642 4286080600
4.5355039 -1.3138098 -1.2477586 4293179026
4.5412331 -1.3457224 -1.2517066 4293374089
4.5282736 -1.3721639 -1.2503906 4292715128
4.5160823 -1.3987823 -1.2493378 4293239413
4.5129337 -1.4282112 -1.250917 4292055389
4.5040851 -1.4558753 -1.250917 4292254061
4.4950676 -1.4834844 -1.250917 4294954681
4.4703364 -1.5058062 -1.2464426 4282914317
4.4610128 -1.5332072 -1.2464426 4284558626
4.4178329 -1.54875 -1.2367042 4286532403
4.4055209 -1.5748546 -1.2359146 4286009391
4.403934 -1.6048275 -1.2382834 4285352239
4.4536991 -1.6539716 -1.2556546 4285354808
4.4642215 -1.689115 -1.2617081 4285486135
4.5005884 -1.7345043 -1.2753946 4284102427
4.4826756 -1.7592689 -1.273289 4285614887
4.4762769 -1.7885298 -1.2746049 4286864425
4.4982867 -1.8294014 -1.2843434 4286411083
4.3960438 -1.81936 -1.257497 4284840037
4.0105762 1.5479664 -1.1863303 4293980909
2.7466846 1.040953 -0.79769105 4290489008
2.7548225 1.0247502 -0.79823995 4286472541
2.7601552 1.0074981 -0.79796553 4285552449
4.0147643 1.43741 -1.1764497 4287528541
4.0271382 1.4140227 -1.1775475 4280554500
3.1928549 1.0992121 -0.9231205 4281408788
3.9968066 1.3485157 -1.1632755 4287195708
3.9913101 1.3194404 -1.1591585 4286276138
4.0130539 1.2993673 -1.1632755 4286342986
3.906368 1.2384056 -1.1289675 4284963150
3.7035728 1.1491762 -1.0661156 4281741346
4.2295246 1.2839198 -1.2209126 4289898655
4.3590083 1.2940571 -1.2571417 4287462781
4.2892909 1.2447808 -1.2340868 4281935142
4.3162761 1.223946 -1.2398505 4284894016
4.5071988 1.24824 -1.2941941 4281206528
4.5175581 1.2213134 -1.2950175 4284825658
4.5305457 1.1950424 -1.2966644 4284957744
4.5405874 1.1679394 -1.2974877 4285154349
4.5448694 1.1393555 -1.2966644 4284365094
4.5629849 1.1141837 -1.2999579 4282134059
4.8475947 1.152184 -1.3814733 4280627519
4.9014182 1.1332451 -1.3951964 4279838783
4.8838859 1.0976686 -1.3880605 4282667110
4.8257046 1.053534 -1.3691225 4285034621
4.8038564 1.0179265 -1.3608886 4285692541
4.7921152 0.98475516 -1.3556738 4287204232
3.2655289 0.65031815 -0.90967184 4286221202
4.7934518 0.92387336 -1.3526547 4285426021
4.783905 0.89162606 -1.3482633 4287995046
4.7684655 0.858509 -1.3422251 4281419604
4.7708011 0.8287406 -1.3414017 4281024076
4.7701058 0.79849982 -1.3397549 4280564293
5.3170061 0.85649967 -1.4964732 4280564806
5.3421173 0.82694674 -1.502237 4280959582
5.3680162 0.79725885 -1.508275 4280955461
5.3918476 0.76701355 -1.5137644 4287400340
5.4183679 0.73689425 -1.520077 4281153612
5.4389987 0.70573628 -1.5247428 4280432720
5.4403639 0.67199647 -1.5239195 4280104784
5.4596653 0.64039367 -1.5283109 4280366149
5.2455864 0.58269238 -1.4657334 4280694854
4.9678936 0.52102822 -1.3850414 4284238426
4.9269767 0.48619553 -1.372416 4285026131
4.8111348 0.44498304 -1.3383826 4279110930
4.8195229 0.41594973 -1.3400295 4279572260
1.8610798 0.14936012 -0.49221402 4280096798
4.7975802 0.32521886 -1.3317956 4281416255
4.8138828 0.29666141 -1.3359125 4281086787
5.3724852 0.29796299 -1.4951009 4281086526
5.4558496 0.26901191 -1.5184302 4280365895
5.3363485 0.23031473 -1.4838479 4280894553
5.2050509 0.19266836 -1.4459721 4282468684
1.8075371 0.056055665 -0.47547179 4287462014
1.8174601 0.04520081 -0.47821641 4284628780
1.8167417 0.034030426 -0.47794193 4287258431
1.7736478 0.022346733 -0.46559113 4287062851
1.7641357 0.011403364 -0.46284652 4283840290
1.7593645 0.00057809189 -0.46147418 4281737753
1.7381802 -0.010089679 -0.45543602 4281674537
1.7323163 -0.020684589 -0.45378923 4281674537
1.7196583 -0.031084759 -0.45022121 4282002214
1.7203964 -0.041659292 -0.45049569 4281936423
1.7364478 -0.052714325 -0.45516154 4281345572
5.1923242 -0.22220118 -1.4426785 4280230952
5.1956649 -0.25429189 -1.4440508 4280825912
1.7980003 -0.098809093 -0.47327608 4278782476
5.1700783 -0.31667775 -1.4377382 4285562494
5.1689973 -0.34845954 -1.4380126 4280825398
5.210876 -0.38341859 -1.4506379 4283982435
5.2486839 -0.41859841 -1.4621654 4284241231
5.3514037 -0.45985964 -1.4923563 4280685325
5.3599715 -0.49374589 -1.4956498 4282330152
5.352056 -0.52615398 -1.4942775 4281740331
5.3745494 -0.56168425 -1.501688 4281280039
5.3719578 -0.59475714 -1.5019624 4281281322
5.3481503 -0.62536097 -1.4961988 4279768853
5.3413496 -0.65781194 -1.4953754 4279768599
5.4049211 -0.69933915 -1.5148622 4279570706
5.3643188 -0.72757626 -1.5044326 4279505427
5.3778429 -0.76304531 -1.5096474 4282203451
5.3711572 -0.7957468 -1.5090985 4282861124
4.6952462 -0.72502965 -1.3153278 4278913292
5.3961158 -0.8672474 -1.5192536 4286413178
4.8690457 -0.8131789 -1.3682991 4283445550
4.8393307 -0.83876789 -1.361163 4281539606
4.829361 -0.86759514 -1.3597908 4281212698
4.8305645 -0.89844251 -1.361712 4281609258
4.8221278 -0.92752028 -1.3608886 4283717203
4.8078575 -0.95540345 -1.3584185 4282795588
4.8066149 -0.98585224 -1.3597908 4282664515
4.8183498 -1.0191087 -1.3650055 4281743415
5.1709065 -1.126897 -1.4698503 4278913294
5.0025148 -1.1223834 -1.4226427 4284570209
4.958056 -1.1444033 -1.4116642 4279766802
4.9266148 -1.1690298 -1.4045281 4287071108
4.9800735 -1.2140453 -1.4223683 4280230692
4.9781275 -1.2459809 -1.424015 4279573540
4.9461732 -1.2702817 -1.4168789 4280692283
4.9085302 -1.2927676 -1.4080962 4284842885
4.8633709 -1.3128343 -1.3971177 4292803575
4.8190794 -1.3326523 -1.3864136 4289580488
4.7673273 -1.3498801 -1.3735139 4291750117
4.45048 -1.2896869 -1.2818433 4280950557
4.4286542 -1.3128695 -1.2777264 4284364853
4.4232759 -1.3408556 -1.2785498 4284232746
4.4186392 -1.3691097 -1.2796476 4284954924
4.4074054 -1.3953253 -1.2788242 4283309326
4.3969307 -1.4217507 -1.2782753 4290282858
4.385385 -1.4477983 -1.2774519 4291994252
4.3827977 -1.4768293 -1.2793732 4294494898
4.3900213 -1.5093226 -1.2843134 4289165915
4.3942885 -1.5410053 -1.2884305 4283312660
4.4499407 -1.5912565 -1.3081918 4282262286
4.4247351 -1.6129311 -1.3035259 4284434209
4.4147549 -1.6400504 -1.3035259 4285749542
4.4136019 -1.6705127 -1.3062705 4286210347
4.4256988 -1.7062119 -1.313132 4287854405
4.4778008 -1.7579386 -1.3323444 4285088030
4.4713941 -1.7871655 -1.3337168 4286075676
4.4692512 -1.8181924 -1.3364614 4285684771
4.49266 -1.8599285 -1.3471655 4285362007
3.9299195 1.5449209 -1.215559 4289243565
2.7332389 1.0547837 -0.83084238 4289046176
2.7020206 1.0237154 -0.81886458 4291805871
2.664238 0.99072927 -0.80489039 4282854928
3.9864559 1.4552468 -1.2218331 4285223475
4.0052352 1.4343164 -1.2249702 4288776826
3.1666925 1.1118888 -0.95775038 4282264097
3.9790385 1.3700677 -1.2112813 4285747250
3.9574039 1.335505 -1.2018701 4286007843
3.9436855 1.30397 -1.1950256 4286075954
3.9087596 1.265856 -1.1816218 4285091128
3.8406279 1.2177817 -1.1579514 4284630056
4.0850954 1.2678401 -1.2318146 4284036373
4.1744156 1.2675575 -1.2571963 4281403665
4.4191499 1.3123791 -1.3307744 4283646259
4.1546807 1.2060723 -1.2463592 4281407759
4.3943529 1.2465312 -1.3182262 4284826673
4.4213147 1.2249235 -1.3242151 4284627237
4.4342985 1.1992745 -1.3259262 4285219376
4.4323068 1.1695958 -1.3230743 4284825895
4.4431129 1.143334 -1.3242151 4284628526
4.4872289 1.125386 -1.3356225 4282330411
4.7724295 1.1659105 -1.4208933 4280625458
4.8065333 1.1430427 -1.4291638 4279971131
4.7723708 1.1040139 -1.4166156 4279245348
4.7089257 1.0589221 -1.3952266 4287336334
4.7490425 1.0373803 -1.4054933 4285888370
3.2129967 0.6808303 -0.93636143 4286612611
4.7830071 0.98346931 -1.4120525 4285821816
4.7983508 0.95597786 -1.4149045 4286019449
4.8050675 0.92669952 -1.4151896 4285756536
4.8087792 0.89684677 -1.4146192 4285690741
4.8028722 0.86528176 -1.4111971 4285427051
4.7939272 0.83332992 -1.4069192 4285755246
4.7724829 0.79945904 -1.398934 4285689969
4.7413425 0.76435506 -1.3880969 4285822844
5.3009653 0.82137185 -1.5552162 4281150262
5.3134894 0.78995955 -1.5574977 4285690490
5.337214 0.76004839 -1.5632014 4279902252
1.8820856 0.25548118 -0.52426684 4288317061
1.8950233 0.24541229 -0.5276891 4294764767
1.9117126 0.23566554 -0.53225207 4294239714
1.9121708 0.22381908 -0.53196692 4284436553
1.8982668 0.21038336 -0.52740389 4286209880
1.9071476 0.19953439 -0.52968538 4286605155
1.9092898 0.18792306 -0.52997059 4286407773
1.9132701 0.17647018 -0.53082615 4285617472
1.9162267 0.16489276 -0.53139651 4286736212
4.7470455 0.38089335 -1.376119 4279307019
4.7215738 0.34969899 -1.3678486 4279504398
4.7198057 0.32046071 -1.3667079 4279635468
4.72264 0.29155377 -1.3669931 4279307019
4.7214689 0.26241043 -1.3661375 4279307280
4.727777 0.23367287 -1.3675635 4280626488
1.8966428 0.081377648 -0.52398169 4286208839
1.8549632 0.068163276 -0.51143348 4284299563
1.8333124 0.05609192 -0.50487417 4294499526
1.8441619 0.045106363 -0.50801122 4285945658
1.8271546 0.033462975 -0.50287789 4287522381
1.7755723 0.021587767 -0.48747781 4286800965
1.7593777 0.010583788 -0.48262963 4283973159
1.7584511 -0.00021227257 -0.48234448 4281540374
1.7267876 -0.010825098 -0.47293332 4281805611
1.732439 -0.021487696 -0.47464445 4282002473
1.7332329 -0.032134458 -0.4749296 4282133798
1.7205465 -0.042469777 -0.47122219 4282003494
1.7212116 -0.053054933 -0.4715074 4281345565
1.8147221 -0.067021206 -0.49945566 4281739555
1.8410898 -0.079292588 -0.50744087 4283713861
1.869289 -0.09198305 -0.51599646 4285817178
1.8801739 -0.10407963 -0.51941872 4284830026
1.8900235 -0.11625497 -0.52255577 4285617489
1.8911872 -0.12797798 -0.52312613 4286274647
1.8865427 -0.13929974 -0.52198535 4286800473
1.8894744 -0.15117612 -0.52312613 4285025592
1.8894662 -0.16284859 -0.52341127 4283974187
1.9084752 -0.17627808 -0.52940023 4283317036
1.923574 -0.1895732 -0.53424841 4280422917
1.9805269 -0.2074284 -0.55164474 4280031247
1.9449201 -0.21579227 -0.54137808 4280820511
1.9892565 -0.23304851 -0.555067 4280032286
5.2667441 -0.68068457 -1.5392457 4280887844
5.2776651 -0.71504343 -1.5438087 4281019438
5.2969041 -0.75077057 -1.5509384 4280363056
5.2741818 -0.78059536 -1.5455198 4279507494
4.7160716 -0.72771633 -1.378971 4288389800
4.8563142 -0.77985692 -1.4226044 4279438342
4.8703465 -0.81279099 -1.4283082 4290355613
4.8520455 -0.84037268 -1.4243156 4285418573
4.8354769 -0.8680988 -1.4208933 4283054902
4.8451366 -0.9005512 -1.4254563 4282267958
5.2583914 -1.0106765 -1.5523643 4280821808
5.2323475 -1.0390065 -1.5463754 4281283388
5.091598 -1.0436015 -1.5055938 4280296745
5.1160455 -1.0813572 -1.5150049 4287270551
5.0250235 -1.0943909 -1.4893382 4281942088
5.0004425 -1.1212229 -1.4839196 4280494894
4.9906673 -1.1512383 -1.4830641 4291941076
4.9079642 -1.1639415 -1.4599639 4287988098
4.9631257 -1.2092212 -1.4790714 4282924604
4.953753 -1.2391869 -1.4785011 4280032033
4.9005632 -1.2578932 -1.4645269 4280430138
4.86309 -1.280138 -1.4554009 4278723631
4.8153501 -1.2992265 -1.4431379 4290236620
4.7731032 -1.3193085 -1.432586 4289909958
4.7160358 -1.3347487 -1.4174712 4288991427
4.6552782 -1.348473 -1.4012154 4291945698
4.3436337 -1.2872202 -1.3071039 4282200622
4.3145542 -1.3074602 -1.3005446 4283644204
4.3082824 -1.334476 -1.301115 4283970337
4.3064098 -1.3629087 -1.3031113 4288510307
4.3171196 -1.3954927 -1.3091003 4294562497
4.3093863 -1.4222559 -1.3093854 4285350196
4.2914944 -1.4456137 -1.3065336 4284625699
4.2897959 -1.474409 -1.308815 4284626988
4.2734313 -1.498168 -1.3065336 4284232746
4.2686715 -1.5259732 -1.3079594 4283643943
4.4024272 -1.6042788 -1.3533041 4283580193
4.400588 -1.6342626 -1.3558708 4284304163
4.392271 -1.6619112 -1.3564411 4286077994
4.4043517 -1.6974419 -1.3635708 4286670383
4.4563146 -1.7489307 -1.383534 4281473536
4.4650826 -1.7840602 -1.3898081 4285024287
4.4629312 -1.8150325 -1.3926599 4285290798
4.4667673 -1.8486097 -1.397508 4286153325
4.0237017 1.6100364 -1.3037884 4294440692
4.0077267 1.5751878 -1.2951936 4286146905
2.6148231 1.0093902 -0.82869941 4289767579
2.693311 1.0207332 -0.85270578 4283906851
4.0324607 1.4998204 -1.2940081 4289039753
4.0415874 1.4750495 -1.2940081 4280027137
4.0154929 1.4376707 -1.2824495 4289104510
2.9527538 1.0368905 -0.93005967 4283446051
3.9407182 1.3565854 -1.2522192 4284562727
3.9426332 1.3302432 -1.2501446 4285350958
3.4428935 1.1382017 -1.0841746 4285024305
4.0186315 1.3011726 -1.2697053 4284565286
4.0320024 1.2782216 -1.2714835 4284695853
4.2422771 1.3162713 -1.3372788 4281868569
4.3151617 1.3099077 -1.3583214 4284303151
4.3185406 1.282047 -1.3568395 4284103463
4.1969929 1.2180039 -1.3150507 4283114778
4.290761 1.2167132 -1.3429099 4284891702
4.3211575 1.1967334 -1.3503193 4284694570
4.3191991 1.1677049 -1.3473556 4284825899
4.3216648 1.1399633 -1.3458737 4284299052
4.3443027 1.117468 -1.3509121 4282656294
4.6827374 1.1739057 -1.4570143 4280031524
4.7167597 1.1517186 -1.4656092 4282862937
4.7618351 1.1318074 -1.4777606 4282401091
4.7779951 1.1047188 -1.4807242 4279571222
3.1968241 0.71863294 -0.97570139 4284703849
4.5355201 0.99020553 -1.3995175 4284572530
4.7321157 1.0027307 -1.459978 4283388513
4.7868276 0.9836691 -1.4753895 4283324009
4.7834063 0.95241481 -1.4724258 4282997104
4.6606779 0.89829385 -1.4318224 4283327099
4.6482625 0.86635607 -1.4261913 4283392892
4.6591311 0.83883351 -1.4279696 4282534493
4.69242 0.81513131 -1.4368608 4283388254
4.742548 0.79388899 -1.4510868 4283979613
4.7869329 0.77115089 -1.4635345 4284571742
4.7632589 0.73738319 -1.4546432 4285294420
4.7015634 0.69832569 -1.433897 4283386941
5.1445012 0.7318452 -1.5714149 4280429875
5.2255507 0.71068507 -1.5954213 4279840319
5.2061343 0.67553759 -1.588012 4280037700
5.1883802 0.64088929 -1.5811954 4279573542
4.8772874 0.57212484 -1.4827989 4279833365
4.7516093 0.52785677 -1.4424919 4290222748
4.7053657 0.49351504 -1.4270804 4279436288
4.7406211 0.46782058 -1.4371572 4279703058
1.8504002 0.17138262 -0.53558463 4283977043
4.701282 0.40575448 -1.4232275 4279701781
4.6741705 0.37453791 -1.41404 4279701779
4.6611414 0.34472489 -1.4092979 4279504400
4.6650743 0.3162472 -1.4098907 4279636499
4.6783662 0.2883209 -1.4134471 4279440149
4.7162843 0.26161674 -1.4247094 4279834396
4.7569118 0.23459886 -1.4368608 4278782730
4.9061604 0.21177915 -1.4827989 4289442221
4.8720536 0.18036698 -1.471833 4289703577
1.8564726 0.057562802 -0.53528827 4281805097
1.8396049 0.045746844 -0.52995354 4284693030
1.8713628 0.035041951 -0.53973389 4285812265
1.7626728 0.022210848 -0.50594717 4286929202
1.7341243 0.01121594 -0.49705592 4284431401
1.699778 0.00057159201 -0.48638645 4281934879
1.7207607 -0.0099846926 -0.49290672 4281870890
1.7158918 -0.020484813 -0.49142483 4281805346
1.7214634 -0.031117797 -0.49320307 4282264356
1.7193305 -0.041633241 -0.49261031 4282198563
1.736226 -0.052707534 -0.49794504 4281673249
1.7492318 -0.063850522 -0.50209427 4281215016
4.9386821 -0.21132791 -1.4928757 4293127662
4.9420619 -0.24186091 -1.4943575 4292863461
4.9357171 -0.27191722 -1.4928757 4290693824
4.9568343 -0.30360016 -1.4999887 4285826421
4.9301028 -0.33233696 -1.4922829 4293524200
4.893681 -0.36005566 -1.4816134 4293852662
4.9456458 -0.39440787 -1.4985068 4288063141
5.0677867 -0.43546721 -1.5373318 4279904032
5.0916486 -0.46900931 -1.5456303 4286676073
5.1209917 -0.50342155 -1.5557071 4283516733
5.1501026 -0.53821146 -1.5657839 4281742643
5.1210732 -0.5669623 -1.5577817 4281745733
5.1573386 -0.60303545 -1.5702295 4278324750
5.1478543 -0.63396811 -1.5684513 4278323974
5.0415735 -0.65229964 -1.5364428 4292863197
5.1150808 -0.69375318 -1.5607455 4280098075
5.1268029 -0.72740775 -1.5657839 4280689963
5.1222429 -0.75885147 -1.5657839 4278193177
4.9957309 -0.77145475 -1.5275515 4280431421
4.8362575 -0.77722806 -1.478946 4282730575
4.9124107 -0.82042468 -1.5044342 4282070329
4.8649378 -0.84320813 -1.4910973 4281082664
4.8728323 -0.87540829 -1.4952466 4281411376
4.8748813 -0.90668863 -1.4976176 4280228901
4.876729 -0.93802708 -1.4999887 4280296232
5.030127 -0.9995904 -1.5503724 4281415995
5.0023808 -1.0260206 -1.5435557 4292995047
5.0128102 -1.0602541 -1.5488905 4280230952
5.0118093 -1.0922127 -1.5506687 4279311140
5.0106044 -1.1241989 -1.552447 4279837738
5.0091958 -1.1562115 -1.5542252 4280493613
4.9992189 -1.1862638 -1.5533361 4281148196
4.808126 -1.172114 -1.4946539 4282001446
4.9073882 -1.2282698 -1.5287369 4291281856
4.8710828 -1.2509909 -1.5195494 4281283891
4.8291435 -1.2718531 -1.5085835 4288984243
4.7898993 -1.292995 -1.4985068 4289511858
4.7376914 -1.3101386 -1.4842807 4290041292
4.6799412 -1.3251293 -1.4682765 4287281583
4.6359472 -1.3434496 -1.4567178 4286292891
4.5589428 -1.3515053 -1.4344897 4285759098
4.2727151 -1.2952014 -1.3443918 4281741093
4.2291093 -1.3103669 -1.3328332 4283643178
4.2091527 -1.3325431 -1.3289803 4285087285
4.2045321 -1.3595206 -1.3301659 4284365095
4.1961112 -1.3852936 -1.3301659 4284826156
4.1902471 -1.4119294 -1.3310549 4284431400
4.1914392 -1.4410303 -1.3343151 4284692779
4.1915312 -1.4698826 -1.3372788 4284560680
4.1923251 -1.4991119 -1.340539 4284561963
4.1848421 -1.5254618 -1.3411317 4284037670
4.3007402 -1.5976841 -1.3826241 4286210117
4.4078655 -1.668341 -1.4214493 4285026609
4.4162598 -1.702572 -1.4276731 4286210109
4.4901834 -1.7628012 -1.4558288 4283709199
4.5023398 -1.7995372 -1.4635345 4285878048
4.4938674 -1.8282092 -1.4644237 4285880366
4.5090375 -1.8667103 -1.4733149 4284899138
4.0016875 1.6301388 -1.3510484 4293979889
3.9868743 1.5956447 -1.342461 4285489745
2.5643773 1.0076647 -0.84653962 4286146905
2.5731754 0.99294013 -0.84745979 4284171300
3.9924314 1.5132121 -1.334487 4283841309
3.9677458 1.476066 -1.3228327 4282328089
2.7617719 1.0077955 -0.90603793 4288249979
2.7643194 0.98954606 -0.90481114 4288512373
3.9394681 1.3835288 -1.3041245 4283249709
3.9343851 1.3546788 -1.2995241 4285355850
3.3375459 1.126128 -1.0937337 4284566076
4.021194 1.3296224 -1.323446 4284169256
4.1424546 1.3416121 -1.3617826 4282984730
4.1823611 1.3262473 -1.3725169 4282524446
4.2167797 1.308749 -1.381411 4284430898
4.2256417 1.2831274 -1.3817176 4284365872
4.2115388 1.2506664 -1.374357 4283906861
4.1176791 1.1953201 -1.3403141 4283772968
4.2091722 1.1939504 -1.3685298 4283048993
4.2338457 1.1729337 -1.374357 4284037171
4.2382069 1.1461871 -1.3734369 4283050793
4.2562027 1.1230775 -1.3771173 4284831061
4.5588851 1.1731572 -1.4755654 4282532418
4.6158485 1.157678 -1.4921268 4279310881
3.0982611 0.75648606 -0.98639131 4286613393
4.7574859 1.1313664 -1.5344503 4279968813
4.7726841 1.1040864 -1.5372106 4279442718
4.5843692 1.0308806 -1.4728051 4280757545
4.5664325 0.99744511 -1.4648312 4285099107
4.4877405 0.9514221 -1.4369222 4284704351
4.4683228 0.91868603 -1.4286416 4284047449
4.4514732 0.88678294 -1.4212809 4284772462
4.456831 0.85945249 -1.4212809 4285299322
4.4564066 0.83104134 -1.4194407 4281285698
4.483902 0.80773729 -1.4268013 4282010961
4.6660004 0.81106073 -1.4847661 4281289550
4.6727667 0.7827304 -1.4853796 4281353041
4.6821799 0.75480264 -1.4869131 4280560182
4.7375131 0.7339403 -1.5034744 4285293932
4.7579317 0.70724052 -1.5086882 4284042824
4.6349745 0.65988994 -1.4672847 4287336334
5.0897284 0.69291323 -1.6138836 4280693574
5.0627375 0.65761709 -1.6037627 4279049263
5.0534525 0.62490201 -1.5994691 4278782227
4.9305234 0.57897818 -1.5583723 4289109149
4.8762798 0.54228318 -1.5396641 4280816148
4.8615308 0.51045984 -1.533837 4280226834
1.8677111 0.18380502 -0.56346273 4288974730
4.6295481 0.42867577 -1.4568572 4280228125
4.6377807 0.40075442 -1.4586973 4279899669
4.7530522 0.38137683 -1.4951937 4279373327
4.8540187 0.35954133 -1.5270897 4279439120
4.8542347 0.32962143 -1.5264764 4279439120
4.7621169 0.29400072 -1.4961138 4279504398
4.7001595 0.26122078 -1.4755654 4279636247
4.7073774 0.23265956 -1.4774055 4278520336
4.8855853 0.21146937 -1.5344503 4279507757
4.8554034 0.18031476 -1.5243294 4287268226
1.8282878 0.055934973 -0.54812813 4284309858
1.8618995 0.045551468 -0.55886233 4285222460
1.7974324 0.032899581 -0.53800726 4287459147
1.7481107 0.021235764 -0.52205932 4286931774
1.734883 0.010420128 -0.51776564 4283775014
1.6949381 -0.00024691352 -0.5048846 4282066465
1.7082299 -0.010721349 -0.50917828 4281739304
1.700518 -0.02111336 -0.50672472 4282265384
1.6946465 -0.031445142 -0.5048846 4282921257
1.6915671 -0.041774187 -0.50396442 4282724650
1.6922302 -0.052181337 -0.50427115 4281804837
4.8543324 -0.20714894 -1.5243294 4290495430
4.8700819 -0.237762 -1.5298499 4284707186
4.8590279 -0.26711962 -1.526783 4289445309
4.8629975 -0.29727608 -1.5286232 4287669924
4.8553843 -0.32672724 -1.526783 4287604901
1.8327178 -0.13535887 -0.55088842 4292142557
4.8500605 -0.38621032 -1.5264764 4287473576
4.8409605 -0.41539446 -1.5243294 4287999920
4.8496952 -0.44613376 -1.5280098 4287801510
4.8553915 -0.47671753 -1.5307701 4290957004
4.8419614 -0.50541627 -1.5273964 4281746754
4.8255243 -0.53365493 -1.5231028 4289577150
4.8401217 -0.56534743 -1.5289298 4289776329
4.8308935 -0.59433925 -1.5270897 4292080111
4.8498116 -0.62689286 -1.5344503 4290627780
4.9279332 -0.6677385 -1.5611326 4285557865
4.9991369 -0.70863241 -1.585668 4279705377
5.0135264 -0.74207616 -1.5918018 4278849566
4.9891238 -0.76978129 -1.5853612 4279048739
4.8480349 -0.77852941 -1.5408908 4287667103
4.8938656 -0.81671023 -1.5574522 4283519562
4.8615637 -0.84201884 -1.5485581 4280889652
4.8628635 -0.87300879 -1.550705 4280430392
