# .PCD v0.7 - Point Cloud Data file format
VERSION 0.7
FIELDS x y z rgb
SIZE 4 4 4 4
TYPE F F F U
COUNT 1 1 1 1
WIDTH 1107
HEIGHT 1
VIEWPOINT 0 0 0 1 0 0 0
POINTS 1107
DATA ascii
20.899078 -6.1970067 0.83110827 4285890957
20.910391 -6.3402038 0.83300465 4285891468
20.841505 -6.4592161 0.83187413 4282863701
20.681438 -6.5489621 0.82727897 4283782996
20.608536 -6.6652808 0.82603902 4294901494
20.562506 -6.79004 0.82585669 4294375401
20.517616 -6.9151239 0.82574731 4293191123
20.396362 -7.0139132 0.82272035 4290361773
20.279388 -7.1131301 0.81987572 4294178030
20.060343 -7.1748271 0.81309247 4294572275
19.796246 -7.2176747 0.80455863 4294506483
19.675709 -7.3108115 0.80160463 4294835958
19.567863 -7.4076953 0.7991612 4294309868
19.528568 -7.5301394 0.79941648 4281743402
19.535017 -7.6706429 0.80149519 4293717729
19.669458 -7.8630733 0.80864322 4294046191
19.731916 -8.0288124 0.81301951 4294770175
20.10331 -8.3240757 0.82964951 4294639094
20.454306 -8.6168203 0.8455866 4294177003
20.946667 -8.9759798 0.86724937 4282267187
31.032564 -13.524128 1.2709644 4279109894
30.946259 -13.713072 1.2708549 4278912261
30.738529 -13.847281 1.2659316 4279571224
30.60392 -14.013163 1.2639623 4280822564
30.490179 -14.188032 1.2628682 4281480239
30.425135 -14.385529 1.2637799 4282203451
30.29846 -14.55377 1.2622482 4281282349
30.225657 -14.74773 1.2629411 4289178538
18.975859 -9.5486183 0.81083137 4282268987
18.908012 -9.6603251 0.81046665 4284638046
19.613951 -10.173257 0.84193963 4289439395
19.540546 -10.287828 0.84150201 4287915882
19.432104 -10.383512 0.83964211 4287909979
20.823666 -11.291923 0.90007174 4286731097
20.688322 -11.383349 0.89733654 4293446095
20.35108 -11.361013 0.88617688 4289503917
19.681551 -11.306238 0.86393064 4293455087
28.783407 -16.770817 1.2513074 4286217590
28.673939 -16.943552 1.2510521 4283190861
28.555717 -17.110954 1.2504686 4282599492
17.291197 7.544416 0.49356359 4293845441
17.392284 7.4618301 0.49501905 4294240199
17.515112 7.3876128 0.49705669 4292924085
17.63953 7.3129334 0.49914286 4291016088
17.776649 7.2422857 0.50156862 4284569924
17.897785 7.1639128 0.503582 4284767824
17.981409 7.0696907 0.50462508 4284966233
18.127035 6.9988408 0.50729346 4285164641
18.243484 6.9154816 0.50920981 4284704088
18.361467 6.8316531 0.51117468 4284901977
18.485674 6.7490368 0.51330936 4284046670
18.600149 6.6617808 0.51520145 4282006575
18.714243 6.5733733 0.51709354 4282072881
18.85347 6.4926047 0.51964056 4282205236
18.988621 6.4090958 0.52209067 4282467890
19.095924 6.3150668 0.52383721 4287400561
19.198986 6.2187295 0.52548671 4292597692
19.332073 6.1310363 0.5279125 4294965990
19.464802 6.0419431 0.53033829 4294768609
19.619165 5.9581342 0.53332198 4294768348
19.746393 5.8646855 0.53562641 4293714371
19.87801 5.7712932 0.5380522 4292267177
20.015955 5.6784153 0.54064775 4291674012
20.096663 5.5683084 0.54181212 4293583817
20.126591 5.4438481 0.54171509 4282463778
18.862442 4.9778414 0.50916129 4294965997
18.888758 4.8610129 0.50906426 4294570710
20.141933 5.0520267 0.53967744 4292530097
20.237619 4.944243 0.54130274 4292792240
20.366777 4.8435721 0.54377699 4292660394
20.475979 4.7369938 0.54576617 4294305738
20.612923 4.6356196 0.54845876 4285163350
20.735714 4.5297542 0.55081177 4282927419
20.984133 4.4493127 0.55629396 4292202162
21.09819 4.338398 0.5584529 4294042550
21.228336 4.2295728 0.56102425 4293450419
21.363831 4.1204481 0.56374109 4286607960
21.555775 4.0204544 0.56786489 4290095503
21.677441 3.9056692 0.57026643 4294964950
21.847752 3.798106 0.57388079 4293253042
22.019524 3.6889288 0.57754374 4293912261
22.148336 3.5709412 0.58016354 4291543980
22.280478 3.4521239 0.58288044 4291873719
3.9327145 0.58367234 0.13226944 4294175962
22.584425 3.21595 0.589333 4285948756
21.718172 2.9567053 0.56764656 4294764749
21.767628 2.8275125 0.56842285 4294964435
23.238054 2.8737133 0.60396034 4294898905
23.256243 2.7311897 0.60398459 4280161552
3.7905741 0.42061412 0.12833971 4293251548
3.7741928 0.39536294 0.1278788 4284699226
3.0891025 0.3042326 0.11111673 4294900465
2.9724541 0.27429464 0.10823007 4282269759
3.0228844 0.26027176 0.10941869 4292597189
23.759541 1.9069535 0.61417288 4294966237
2.3239841 0.17112218 0.092341274 4286150247
2.3229957 0.15672368 0.092292756 4283848019
2.0175884 0.12353356 0.084845647 4289045913
1.8186762 0.10004171 0.079994112 4290427566
1.799286 0.087892167 0.079508953 4287401092
1.7628372 0.075248346 0.078611419 4284438356
1.7642647 0.064467534 0.078635678 4285097057
1.7846116 0.054261718 0.07912083 4285819247
1.7269459 0.041866053 0.077713884 4294568435
1.6961849 0.030686997 0.07696189 4281015327
1.6803473 0.020076606 0.076573774 4281935142
1.6564463 0.0096096937 0.075991586 4282066728
1.6624724 -0.00055202591 0.076137133 4282328871
1.6384451 -0.010614434 0.075554952 4282985769
1.6463462 -0.020762723 0.07574901 4284825656
1.6431892 -0.03081003 0.075676233 4286138426
1.6819463 -0.041834243 0.076622292 4286929230
27.158873 -0.99140358 0.69524211 4282859316
27.255156 -1.1624118 0.69774061 4293583070
27.57902 -1.3457872 0.70579416 4283977284
27.775869 -1.5262741 0.71079129 4292596654
28.104252 -1.7173311 0.71901464 4293120427
28.33856 -1.9062386 0.72498202 4291936923
28.656347 -2.104305 0.73301131 4291805594
28.865128 -2.2977791 0.73842078 4293779386
29.168222 -2.5020924 0.74615896 4294963650
29.552517 -2.7178061 0.75591058 4294701517
29.854658 -2.9304216 0.76369733 4294702816
30.21594 -3.1531732 0.77296376 4294439383
30.31427 -3.351584 0.77585042 4292530099
30.343775 -3.5434377 0.77708757 4291014802
30.422668 -3.7420015 0.77956182 4290027905
30.548847 -3.947943 0.78322476 4288186470
30.900499 -4.1862988 0.79244268 4287068249
31.244423 -4.4282756 0.80151504 4284833356
22.078154 -3.4063621 0.5778591 4288713613
22.123957 -3.5525413 0.5795086 4287791479
22.136257 -3.6939816 0.58035761 4286806383
22.436272 -3.8856769 0.58831418 4283649608
22.541893 -4.0465798 0.59151614 4279966232
21.360765 -3.9700549 0.56298912 4294309878
21.370367 -4.1076503 0.56383812 4288847258
21.375156 -4.2447338 0.5645901 4288714137
23.605145 -4.8381815 0.62047988 4285621617
22.805244 -4.8202653 0.60138905 4287728787
22.694162 -4.942452 0.59937567 4294109167
22.638046 -5.0759225 0.59874499 4283782234
23.325979 -5.5316205 0.61749613 4291153613
20.640938 -5.8416462 0.55631822 4286218633
20.380007 -5.9031157 0.55064195 4285101695
20.326149 -6.022943 0.55020529 4285497482
20.28307 -6.1458092 0.55005974 4284905855
20.237337 -6.2677822 0.54986572 4287274144
20.17181 -6.3833942 0.54918647 4286154117
20.085651 -6.4919834 0.54799783 4286416517
20.007465 -6.6025753 0.54702753 4284376162
19.928679 -6.7124519 0.54605722 4285100137
19.829445 -6.8147888 0.54457754 4285297012
19.744801 -6.921452 0.54348594 4285757053
19.637005 -7.0192595 0.54181212 4283981155
19.538145 -7.1194272 0.54038095 4286283650
19.404123 -7.2057719 0.5380522 4294178038
19.233315 -7.2769465 0.5347774 4294572278
19.179907 -7.3915882 0.53455913 4292598485
19.236559 -7.5493021 0.53722745 4286676599
19.315207 -7.7172599 0.54050225 4293716966
19.519382 -7.9380531 0.54710031 4294244081
20.043957 -8.2950363 0.56216437 4293718006
20.282921 -8.5400524 0.5698055 4287601334
26.33861 -11.471909 0.73289001 4290303225
17.618664 -8.5923567 0.51144147 4293716450
17.568298 -8.7016315 0.51151431 4294703861
19.061474 -9.5871887 0.55352861 4293453797
18.927498 -9.6657791 0.55149096 4292335062
18.878485 -9.7872543 0.55178207 4294046452
18.857889 -9.9238548 0.55287367 4293586153
19.469484 -10.398699 0.57138228 4291738040
20.331703 -11.02002 0.59694988 4288638320
20.249687 -11.136858 0.59656179 4294960596
20.187956 -11.264794 0.5967558 4294306516
18.431501 -10.433631 0.54972017 4289503897
18.485041 -10.614223 0.55301923 4293058010
24.811136 -14.653991 0.73500043 4292996077
17.062725 7.4410934 0.25692636 4291674786
17.147579 7.3532038 0.25743669 4293648062
17.279911 7.2847495 0.25856411 4292398511
17.391718 7.2065258 0.2594305 4292333231
17.493029 7.1230559 0.26016632 4292070578
17.567041 7.0278425 0.26055795 4290886302
17.939287 7.0493746 0.26475921 4289834378
18.108143 6.9877648 0.26636139 4291544483
18.106731 6.8598747 0.26580358 4290886553
18.087561 6.7259917 0.26503217 4291412381
18.104067 6.6059713 0.2647236 4291938989
18.08589 6.4738708 0.26398778 4282399276
18.164898 6.3766856 0.26448625 4282004269
18.266087 6.2865834 0.26526952 4293649360
18.414223 6.2114582 0.26664621 4292530608
18.52035 6.120945 0.2675007 4292135844
18.643179 6.0349045 0.26856881 4292135074
18.750395 5.9427528 0.26944706 4292594861
18.900156 5.8628426 0.27085936 4292989106
19.041983 5.7789941 0.27217668 4293910721
19.152813 5.6845207 0.27311426 4292596142
19.282406 5.5944762 0.27428919 4293253044
19.409685 5.5025091 0.27544039 4294504649
19.535597 5.4089222 0.27657968 4292595637
19.636951 5.3074756 0.27742231 4282859819
18.907249 4.9859819 0.26807037 4291611323
18.922958 4.8661399 0.26789236 4290887066
20.169731 5.0549912 0.28278664 4291807139
20.235338 4.9396725 0.28321388 4293779646
20.362551 4.8385329 0.2844007 4294436806
20.547737 4.749527 0.28629956 4294964943
20.677956 4.6461558 0.28753382 4293583288
20.793999 4.5383787 0.28860193 4293187762
20.933949 4.4345322 0.28996676 4293054375
21.091036 4.3327594 0.29154518 4292463265
21.070152 4.1938968 0.29097554 4292793772
21.078796 4.0613184 0.29077378 4286081882
21.06105 3.9240298 0.29026344 4287135079
21.064064 3.7910087 0.29001424 4292200613
21.153921 3.6733224 0.29082125 4294305730
21.288492 3.5622663 0.29217419 4294832864
21.494556 3.4613001 0.29439351 4286345830
4.1018367 0.63504505 0.085256316 4291610547
21.832142 3.2413168 0.2979539 4289633677
21.867458 3.1095481 0.29814377 4283844667
21.807852 2.964674 0.29720622 4291674020
21.886124 2.8386517 0.29793015 4293714104
22.492609 2.7770789 0.30497974 4293846460
22.603577 2.6500742 0.30610719 4279373574
3.8152475 0.42391285 0.081553511 4286412665
3.7093782 0.38913468 0.080259904 4293782510
2.9992018 0.29611397 0.071762443 4288980643
2.9352467 0.27163294 0.070979163 4282928457
2.9368584 0.25361747 0.070979163 4290096796
23.77125 1.9031904 0.31903139 4293583547
2.4012549 0.1777778 0.064570457 4288385667
2.3125124 0.15696131 0.063502342 4286281328
2.36533 0.14596315 0.064119481 4288386958
1.8320377 0.10186137 0.057770118 4291479490
1.832628 0.090618283 0.057770118 4288650906
1.8221607 0.078898303 0.057639573 4286612097
1.79663 0.066756487 0.057331003 4285758597
1.7650232 0.054746304 0.056951232 4293914605
1.7233417 0.042880058 0.056452777 4281082650
1.7075762 0.032008789 0.056262888 4281212951
1.6757451 0.021134546 0.055883117 4281737763
1.6648443 0.010783281 0.055752568 4282262565
1.6668789 0.00056800328 0.055776305 4282328358
1.6598517 -0.0096175997 0.055693228 4282853671
1.6537622 -0.019729108 0.055622019 4283379757
1.6516106 -0.029839436 0.055598281 4286796874
1.6603931 -0.040192842 0.055705093 4287521365
27.170782 -0.99740481 0.35869411 4292133031
27.251064 -1.1678287 0.35972664 4291343252
27.264357 -1.3360441 0.35997584 4291080335
27.224697 -1.5016024 0.35960793 4289566843
27.326754 -1.6754769 0.36093715 4288841837
27.528458 -1.8574606 0.36346504 4287921766
27.674105 -2.0379424 0.36534017 4286606684
26.749046 -2.1349041 0.35448098 4287922804
26.687622 -2.2948804 0.35391134 4281805096
26.628235 -2.4544585 0.35337725 4283516482
26.57983 -2.6145694 0.35298562 4287070326
22.184477 -2.3196733 0.300731 4288518803
22.286108 -2.4686334 0.30211955 4288717471
22.316229 -2.610677 0.30266547 4289640120
26.338951 -3.2452939 0.35096806 4292401368
21.119761 -3.5285156 0.29013291 4287593341
21.005102 -3.6419783 0.28901732 4293056988
20.990232 -3.7722096 0.28911227 4285690230
21.327473 -3.9680638 0.29346782 4279702040
21.456881 -4.1285167 0.29533106 4286407006
21.56551 -4.2868071 0.29695699 4286797154
22.468367 -4.6097832 0.30821967 4284962658
22.453352 -4.7504578 0.30838582 4280032543
20.920282 -4.9654336 0.29118916 4283914073
21.03611 -5.129477 0.29298121 4285359726
20.240509 -5.5985255 0.2852433 4284243034
20.296213 -5.748229 0.28635889 4285428852
20.204857 -5.8565087 0.28567055 4286481035
20.15608 -5.9766769 0.28551626 4284048236
19.915207 -6.0384364 0.2829884 4285363324
19.788956 -6.1329899 0.28188467 4283850336
19.688988 -6.2346749 0.28111327 4283653209
19.598989 -6.3387494 0.2804724 4283719515
19.507504 -6.4416423 0.27981967 4284047967
19.417391 -6.5442896 0.27919066 4283587416
19.344721 -6.6522527 0.27878714 4283061333
19.283724 -6.7638736 0.27853793 4285100917
19.271046 -6.892509 0.27890581 4283587424
19.053658 -6.9469128 0.27669838 4286153602
18.830709 -6.9968214 0.27441972 4291612879
18.713545 -7.0842633 0.27348214 4291940817
18.863783 -7.2737865 0.2759507 4294835198
18.841133 -7.3981667 0.27623552 4293781742
18.593092 -8.3757639 0.27802759 4293582797
18.591354 -8.5125875 0.27868032 4294703335
18.765415 -8.7319698 0.28164732 4280426531
19.126408 -9.0431356 0.28709471 4282007101
17.694223 -8.4991856 0.26897234 4292074711
17.605795 -8.5900564 0.26849762 4286874748
17.592176 -8.7174568 0.26901981 4291348931
18.328009 -9.3639812 0.28027064 4292796377
18.224939 -9.4527826 0.27966535 4292996067
18.115278 -9.5374117 0.27897704 4294834672
17.989391 -9.6125689 0.27807504 4291999660
19.378666 -10.508321 0.29763347 4293845706
17.353199 -9.5481901 0.27107298 4294967264
17.641918 -9.9910383 0.27662718 4288584622
21.535431 -12.547628 0.33181319 4289051878
16.804289 7.3389134 0.023389395 4292726706
16.870138 7.2447429 0.023373337 4291345823
16.974152 7.166379 0.02332796 4291675301
17.104624 7.0981278 0.023262335 4290687893
17.211744 7.0191011 0.023214165 4290885783
17.31761 6.9386549 0.02316669 4292530097
17.432436 6.8608356 0.023112237 4291806376
17.499392 6.7634783 0.023093387 4291280290
17.689215 6.7123957 0.022982385 4291938989
17.793789 6.6274691 0.02293491 4290558101
17.904562 6.5439134 0.022882551 4293123263
18.039448 6.4680247 0.022812039 4292859840
18.142002 6.3794446 0.022765264 4290293915
18.255487 6.2937603 0.022710113 4291347375
18.38376 6.2120457 0.02264379 4291149226
18.508867 6.1280503 0.022579562 4292266672
18.638386 6.0442944 0.022511844 4290752918
18.755182 5.9552436 0.0224532 4285751886
18.876358 5.8664703 0.022391066 4287989363
18.599148 5.6553888 0.022619355 4292790961
18.671839 5.5525637 0.022591431 4293119916
18.841909 5.4775386 0.022492297 4293844150
18.991558 5.3948946 0.022407822 4294763197
19.020449 5.2771935 0.022410614 4293187241
19.043783 5.1580334 0.022416897 4284506184
19.048971 5.0341859 0.022435747 4289960071
18.930376 4.878767 0.022543259 4293775283
19.434216 4.8816791 0.022201873 4293843639
19.630873 4.8032298 0.022081794 4293908662
19.742659 4.7023859 0.022022452 4293710259
19.851025 4.5996733 0.021965206 4293317808
19.979355 4.5004225 0.021893298 4290358148
20.11698 4.4019074 0.02181441 4294239939
20.273706 4.3060284 0.021721559 4292858286
20.388874 4.1999154 0.021658029 4293580726
20.53684 4.0992069 0.021570761 4292726439
20.732445 4.0061388 0.021449286 4286741345
20.845104 3.8953893 0.021386456 4294440673
20.936512 3.7796748 0.021338284 4293979109
20.726814 3.6106253 0.021503042 4292463550
4.1806064 0.70091128 0.033231653 4290753433
21.49021 3.4724886 0.020993408 4292726447
21.680084 3.366812 0.020874027 4285093707
21.79034 3.247139 0.020810496 4294173416
21.86034 3.120585 0.020774892 4280291858
21.77108 2.9716468 0.020850988 4292791480
21.770063 2.835551 0.020864252 4285553999
21.756287 2.698102 0.020885896 4288450704
21.864794 2.5754414 0.020820968 4282268484
3.8253274 0.42582753 0.033503927 4285425782
3.7841105 0.39773491 0.033534646 4290032307
2.9762146 0.27568546 0.034104321 4282266685
2.9539404 0.25534219 0.034121074 4292266686
23.066132 1.8593639 0.02003557 4291676091
23.088076 1.7186148 0.020027891 4281938212
2.3425748 0.15887047 0.034551822 4285033565
2.4093788 0.14858831 0.034505744 4287862152
1.8251618 0.1010362 0.034914851 4293783009
1.8147612 0.089287661 0.034922529 4288454289
1.8122776 0.078019843 0.034924623 4287927944
1.8067266 0.066673294 0.034928814 4287531900
1.7481306 0.0537339 0.034970004 4281543454
1.7084402 0.041996121 0.034997929 4283581497
1.6806709 0.030976996 0.035017475 4280685325
1.6758299 0.020599052 0.035020966 4281869090
1.6669248 0.010254264 0.035027251 4282066469
1.6629564 2.3132772e-05 0.035030041 4282328358
1.6549253 -0.010137249 0.035035629 4282590503
1.6618314 -0.020372352 0.035030741 4283971125
1.663675 -0.030604146 0.035029344 4286073151
1.6634557 -0.040811688 0.035029344 4287653204
20.855314 -0.75428694 0.021621726 4285490521
20.783356 -0.87940985 0.021668501 4293714130
20.699657 -1.0031463 0.021722954 4286147422
20.638197 -1.1271421 0.021761352 4287201393
20.605936 -1.2522393 0.021778805 4287596915
20.562944 -1.376316 0.021803239 4286940014
21.875467 -2.4111834 0.020826554 4294375935
22.236721 -2.5891769 0.020561961 4284446862
22.258131 -2.7301948 0.020535432 4284450972
23.209951 -2.9915617 0.019853357 4279375910
23.200079 -3.1351237 0.019847075 4279442206
23.189316 -3.278677 0.019840792 4280492326
23.164804 -3.4203181 0.019843584 4279570706
23.168093 -3.5661926 0.019826131 4279636238
23.146761 -3.7084405 0.019825432 4286017640
22.11051 -3.6817603 0.020542415 4294241765
21.936739 -3.7913096 0.020649228 4279111182
21.921921 -3.9274261 0.020642944 4278913551
21.78532 -4.0410767 0.020722531 4280754467
21.728687 -4.1686454 0.020744871 4283578427
21.635998 -4.2886739 0.020792346 4285749341
21.577925 -4.4149361 0.020814685 4280753697
21.495636 -4.5356936 0.02085378 4280624682
22.538631 -5.482903 0.019997174 4280953137
22.518148 -5.6244869 0.019987399 4280295733
22.46287 -5.7573366 0.02000206 4290363613
22.422283 -5.8937869 0.02000555 4288586164
19.879049 -5.3560395 0.0218179 4294835711
19.834242 -5.4747219 0.021826278 4292928223
19.902285 -5.6251445 0.021752276 4293390575
19.872196 -5.7485452 0.021748785 4291219153
19.709974 -5.8329201 0.021840939 4283916393
19.581926 -5.9259467 0.021907959 4285561992
19.473545 -6.023828 0.021960318 4291548377
19.327517 -6.1088519 0.022039905 4292467149
19.15834 -6.1849399 0.022136249 4292073682
19.063995 -6.2839093 0.022177439 4291153360
18.975792 -6.3841877 0.022213742 4292402656
18.912617 -6.4923844 0.022231195 4292863978
18.830894 -6.5937691 0.022261912 4291285720
18.756176 -6.6970854 0.022287045 4289050036
18.693119 -6.8041801 0.022303101 4294442493
18.64164 -6.9152732 0.022310084 4293453805
18.642824 -7.0461397 0.022277271 4289440945
18.652435 -7.1808729 0.022237478 4294704121
18.880814 -7.4021153 0.022032924 4287007623
21.303026 -8.6546421 0.020138197 4289311166
21.18668 -8.7592154 0.020185668 4288389537
21.078148 -8.8661766 0.020226859 4288648585
17.992203 -7.8295312 0.022492297 4294964196
17.962114 -7.9478745 0.022478333 4294834669
17.943106 -8.0714741 0.022455294 4294704626
17.968727 -8.2159281 0.022397351 4292729547
18.015923 -8.3715324 0.022321951 4287335807
18.129704 -8.5600433 0.022194194 4283124563
18.074133 -8.6698256 0.022196289 4287204499
17.59897 -8.5751562 0.022523712 4289045412
17.693012 -8.7557096 0.022409219 4290757056
17.820345 -8.9552479 0.022267498 4293915120
17.770407 -9.0671501 0.022263307 4294898679
17.662048 -9.1488819 0.022304498 4291539380
17.570171 -9.2384682 0.022332422 4288771442
17.110846 -9.1314363 0.022650771 4292787891
16.956007 -9.1829233 0.022728961 4294964967
16.891455 -9.2824564 0.022735246 4291347902
16.847281 -9.3932304 0.022724774 4294180095
19.416227 -11.139844 0.020563358 4292009189
19.336273 -11.252232 0.020572433 4293852415
19.290979 -11.384895 0.020552887 4294048762
19.205317 -11.493806 0.020565452 4285561715
16.774704 7.315495 -0.19998762 4293255624
16.713593 7.1671128 -0.19850238 4292594869
16.710264 7.0446162 -0.19784372 4291803807
16.848322 6.9813738 -0.19917397 4291935902
16.946405 6.9004884 -0.19994886 4291672730
17.0562 6.8234882 -0.20089167 4292791981
17.167545 6.7461309 -0.20186029 4293514934
17.28138 6.6687436 -0.20286767 4292330662
17.329456 6.5654159 -0.202971 4292133281
17.348795 6.4512939 -0.20268686 4291936671
17.38899 6.3450642 -0.20269978 4291936671
17.490671 6.2608247 -0.20356509 4291409558
17.561781 6.1649776 -0.20401712 4291081875
17.665461 6.0798812 -0.20492117 4290753938
17.800972 6.0046101 -0.20626435 4291280030
17.883053 5.9103327 -0.20688426 4291215520
18.087364 5.8549967 -0.20917024 4291478439
18.183001 5.7629356 -0.20998389 4285819740
18.301107 5.6770301 -0.21110749 4287464311
18.422668 5.5910535 -0.21228276 4292200881
18.532356 5.5003829 -0.21330306 4293516216
18.661789 5.4144273 -0.21459457 4291213451
18.772581 5.321908 -0.21564069 4293912253
18.900286 5.2330341 -0.21691927 4294569682
19.036289 5.1451402 -0.21831411 4292134059
19.094576 5.0353775 -0.21867573 4286671700
19.005997 4.8874927 -0.21708718 4292133023
19.044357 4.7729692 -0.21720341 4293449394
19.639608 4.7942605 -0.22473291 4292331427
19.716326 4.6849899 -0.22536573 4292265120
19.858686 4.5902696 -0.2268768 4292791460
19.950867 4.4827991 -0.2277292 4293055404
19.949667 4.3541155 -0.22735468 4292858793
19.918293 4.2193999 -0.22659266 4292199841
19.956543 4.09972 -0.22676057 4292396452
19.94994 3.9709458 -0.2263473 4292265637
20.03186 3.8596208 -0.22710928 4290753686
20.122992 3.7492712 -0.22800043 4291676079
20.210567 3.6374166 -0.22885281 4287991168
4.3199306 0.75045651 -0.02024848 4289634705
20.695505 3.4630511 -0.23463878 4291475879
20.697605 3.3329804 -0.23439339 4283318577
20.981506 3.246742 -0.2378417 4281676329
21.112799 3.1345322 -0.23930112 4289177499
21.24251 3.0206919 -0.2407476 4280556813
21.351799 2.9026837 -0.24193579 4288253564
20.224886 2.6232176 -0.2270318 4289831579
20.087774 2.4802043 -0.22504288 4285689706
3.8204703 0.44824037 -0.013300169 4281873708
3.8350744 0.42611381 -0.013455149 4284309080
3.8396058 0.40278265 -0.01348098 4283058233
3.8559365 0.38058934 -0.013661791 4291413158
2.9142997 0.26969719 -0.0014182962 4282268458
2.9159 0.25181031 -0.0014182962 4289637025
19.683683 1.454502 -0.21854657 4283120194
2.3773286 0.16134983 0.0056075063 4282465061
2.3293707 0.14375001 0.0062403437 4285886307
1.9258624 0.10705823 0.011470951 4294769908
1.8016447 0.089092776 0.013085335 4287270278
1.7891705 0.077476844 0.013253231 4288388504
1.788613 0.066460326 0.013266146 4284637542
1.7739954 0.055022635 0.013459872 4281149734
1.7982905 0.044728126 0.013149912 4286412136
1.7175518 0.032193527 0.014196033 4280160520
1.7027192 0.021468529 0.014389759 4281475868
1.682821 0.010895547 0.014648059 4281869860
1.6678574 0.00056811003 0.014841786 4282328871
1.6698292 -0.0096777342 0.014815956 4282918955
1.6697385 -0.019923432 0.014815956 4284233014
1.6685851 -0.030150084 0.01482887 4285811010
1.6723671 -0.040485483 0.014777211 4287060300
1.5941303 -0.048362236 0.015784586 4292328358
19.689287 -0.84366578 -0.21815914 4294042836
19.722689 -0.96637034 -0.21866283 4294833902
20.15069 -1.1113288 -0.22428086 4294767598
20.429932 -1.2525166 -0.2279875 4286084203
20.583479 -1.3887562 -0.23007974 4278255872
20.816895 -1.532876 -0.2332181 4279242766
20.998472 -1.6758542 -0.23569781 4285558644
21.169111 -1.8202609 -0.23804834 4284835175
21.335773 -1.9665488 -0.24036014 4281546301
21.582033 -2.1228797 -0.24371806 4279442469
21.789379 -2.2783535 -0.24658522 4285825164
22.02643 -2.4398644 -0.24985272 4288917699
22.273233 -2.6056468 -0.25326231 4285826206
22.384846 -2.7580395 -0.25492835 4281353568
22.338745 -2.8916154 -0.25455382 4278524459
22.250231 -3.0190821 -0.25363684 4278917679
22.160999 -3.1455717 -0.25271988 4281878376
22.07501 -3.2716672 -0.25185457 4281349969
21.96163 -3.3927035 -0.25064054 4280229940
21.890049 -3.5192986 -0.24998188 4280425512
21.833527 -3.647779 -0.24952984 4281215794
21.791029 -3.7782614 -0.24927154 4281347635
21.777277 -3.9136665 -0.24940071 4280426533
21.781361 -4.0525198 -0.24977523 4280491556
21.741358 -4.1832576 -0.24958152 4280950567
21.632898 -4.3002043 -0.24849665 4281213484
21.213324 -4.3522668 -0.24331769 4281147954
21.137304 -4.4719977 -0.24267194 4280161835
21.024469 -4.5830803 -0.24154833 4279243556
20.944244 -4.7003918 -0.24086383 4278850340
20.877012 -4.8200412 -0.24036014 4278522923
20.774078 -4.9307294 -0.23939151 4281220703
20.677374 -5.0419955 -0.23851329 4279510606
20.613068 -5.1605172 -0.23807418 4280233310
20.489012 -5.2632632 -0.23684725 4278787392
20.440861 -5.3848066 -0.2366406 4279641651
20.360134 -5.497355 -0.23600778 4280558367
20.292288 -5.6128488 -0.23555574 4280953384
20.249769 -5.735074 -0.23545241 4281151278
20.117201 -5.831099 -0.234148 4280098075
19.848089 -5.8853464 -0.23100963 4279308299
19.739035 -6.117517 -0.23053178 4288649376
19.674435 -6.2300658 -0.23017016 4288850100
19.550215 -6.3229733 -0.22900778 4289637033
19.454079 -6.4239993 -0.22823289 4288123016
19.39345 -6.5362201 -0.22794876 4286215537
19.321775 -6.644362 -0.22752255 4282926915
19.215536 -6.7399559 -0.22663143 4280821798
19.226545 -6.8765917 -0.22735468 4279243281
19.867886 -7.2437963 -0.23675683 4278979847
19.760265 -7.3422313 -0.23589152 4279045638
19.684917 -7.4520106 -0.23547825 4279308812
19.490482 -7.5154524 -0.23342475 4285166196
19.439348 -7.6330752 -0.23336017 4291088077
19.266804 -7.7020988 -0.23161665 4290889659
19.217329 -7.8194189 -0.23159081 4294638823
19.120026 -7.9169116 -0.23090631 4283910975
18.98539 -7.9979777 -0.22970521 4282657834
18.914818 -8.1052599 -0.22940817 4280421642
18.370193 -8.4113169 -0.22457793 4284835425
18.302824 -8.5167046 -0.22435838 4283980116
18.233046 -8.6207275 -0.22411299 4289440685
17.561501 -8.4354305 -0.21525323 4280755756
17.57851 -8.7106848 -0.21700969 4286087809
17.885584 -8.9999695 -0.22222736 4284968297
17.832697 -9.1109085 -0.22226614 4285757039
17.767582 -9.2155523 -0.22213697 4279637777
17.692122 -9.3146152 -0.22186574 4279437837
17.619642 -9.4149857 -0.22164619 4279109391
18.014349 -10.05648 -0.23009267 4287278800
17.974926 -10.179637 -0.23042846 4287738831
17.906055 -10.286249 -0.23033804 4287078844
17.86161 -10.407001 -0.23062217 4283853702
17.777618 -10.504702 -0.23032513 4283193446
17.760006 -10.641853 -0.23103547 4278850077
16.47262 7.1871986 -0.41521165 4280161548
16.495279 7.0769219 -0.41463366 4290228384
16.531944 6.972856 -0.41445777 4291084706
16.576263 6.8720522 -0.41450801 4291349408
16.657928 6.7864337 -0.41558862 4293978822
16.767004 6.7112174 -0.4174231 4294700750
16.854385 6.626503 -0.41867962 4293516990
16.985186 6.5578942 -0.42111722 4292859062
16.996124 6.4425654 -0.42033818 4290489746
17.013788 6.3301382 -0.4197602 4290226321
17.057943 6.2276821 -0.419911 4292989627
17.233238 6.1721206 -0.42357999 4294701528
17.520725 6.1540713 -0.43023947 4294636762
17.467419 6.0151968 -0.42782697 4293255103
17.457588 5.8922377 -0.4265956 4293187774
17.911022 5.92314 -0.43765283 4292002986
18.06971 5.8528748 -0.4408946 4290489744
18.166267 5.7612357 -0.44250295 4289897097
18.258562 5.6674461 -0.44401073 4290489485
18.326469 5.5654759 -0.44489029 4291804832
18.330566 5.444097 -0.44411126 4292264867
18.309866 5.315908 -0.44270399 4292200614
18.292128 5.18927 -0.44139722 4280952072
18.354452 5.0854783 -0.44220138 4284107338
18.469267 4.9954743 -0.4443877 4294962933
18.562397 4.8986397 -0.44602117 4282329888
18.674395 4.8058333 -0.44815722 4290882962
18.7908 4.7130523 -0.45041892 4292725158
18.940754 4.6273289 -0.45356017 4293185193
19.089384 4.5397105 -0.4566763 4292133023
19.218172 4.4459338 -0.45928985 4291474840
19.368954 4.3557925 -0.46248138 4290423181
19.460751 4.2511635 -0.46416506 4289633924
19.578394 4.1511707 -0.46652731 4291015065
18.639 3.8325787 -0.44177416 4293581504
18.572948 3.7003589 -0.43948734 4294832599
18.571745 3.5817828 -0.4388842 4292399291
18.55603 3.460794 -0.43792927 4292660412
4.4421782 0.79941237 -0.076885179 4288254851
18.378454 3.1947997 -0.4323504 4289828224
18.376019 3.0783367 -0.43179753 4292328876
18.3314 2.9553382 -0.43018919 4289961100
18.250399 2.827492 -0.42767617 4288580477
18.199175 2.7053096 -0.42594221 4287330661
18.150114 2.5842862 -0.42428362 4289830017
18.079453 2.461134 -0.4220973 4286935636
18.051584 2.3446145 -0.42101672 4294041295
18.006102 2.2264438 -0.4195089 4293845465
3.8752117 0.4541204 -0.061505552 4282532156
3.7149827 0.41220284 -0.057384219 4282467126
3.8188515 0.40005505 -0.059947487 4281019422
3.8371518 0.37818915 -0.060349572 4292597443
17.645859 1.634133 -0.40890402 4293515965
2.7628725 0.23778372 -0.033133682 4283583815
2.7284064 0.21794561 -0.032228995 4293517790
2.3349144 0.15753381 -0.022252347 4283647801
2.3278549 0.1427107 -0.022051305 4284767313
1.8974904 0.10442784 -0.011195105 4294966517
1.8082337 0.088335067 -0.0089333951 4285493614
1.8097407 0.077281587 -0.008958526 4287993748
1.7941967 0.065581121 -0.0085564442 4284374614
1.7705846 0.053826034 -0.0079533234 4283714625
1.7279084 0.041890044 -0.0068727285 4286148453
1.7031453 0.030817715 -0.0062444769 4279699459
1.6783122 0.020050874 -0.0056162253 4282263594
1.6724056 0.0097135389 -0.0054654442 4282000933
1.6604375 -0.00055278064 -0.0051638819 4282328871
1.6624022 -0.010752549 -0.0052141435 4282656296
1.6513091 -0.020821789 -0.0049377121 4284496956
1.6591464 -0.03109788 -0.0051387511 4286073153
1.662922 -0.041374277 -0.0052392744 4287256655
19.742561 -0.72099888 -0.46004376 4286743946
19.849627 -0.8468895 -0.46285832 4287534745
20.044756 -0.97845364 -0.46790949 4288916397
20.21505 -1.1111284 -0.47235748 4289507764
20.438351 -1.2492199 -0.47816256 4294704125
20.594877 -1.3856673 -0.48230901 4294835967
20.721581 -1.5219604 -0.48572668 4294639615
21.044693 -1.6755592 -0.49412015 4294901755
21.244181 -1.822675 -0.49942258 4294835701
21.379929 -1.966536 -0.50314182 4294508025
21.668917 -2.1272619 -0.51075625 4285559409
21.836416 -2.2790568 -0.51532996 4287927703
22.05155 -2.4383678 -0.52113497 4279373843
22.175184 -2.5898557 -0.5246532 4280756783
22.317629 -2.7453918 -0.52867401 4280690994
22.26269 -2.8774114 -0.52771908 4280427569
22.243626 -3.0138245 -0.52769393 4280361524
22.187101 -3.1449225 -0.526739 4280230970
22.130796 -3.2755868 -0.52580917 4280363067
22.01741 -3.3969934 -0.52344698 4279705134
21.958645 -3.5260048 -0.52249199 4284047211
21.890249 -3.6529429 -0.52131087 4283191379
21.805368 -3.7764461 -0.51972771 4282862414
21.598648 -4.151516 -0.51630998 4284244327
21.325668 -4.2349091 -0.50997722 4280296760
21.182741 -4.3418007 -0.50698674 4280297802
21.125381 -4.4652863 -0.5062077 4280101453
21.027258 -4.5795126 -0.50439835 4279641410
20.929502 -4.6929216 -0.50261408 4279246656
20.860374 -4.8120432 -0.50158376 4279641159
20.773066 -4.9263425 -0.50010109 4280430675
20.707481 -5.0451937 -0.49919644 4280036430
20.59079 -5.1508136 -0.49698499 4279511115
20.497793 -5.2614045 -0.49540177 4280431439
20.426455 -5.3769007 -0.4943966 4279772990
20.329374 -5.4849505 -0.49273798 4279968819
20.247158 -5.5962725 -0.49148151 4280624960
20.158573 -5.7051592 -0.49007419 4280624445
20.061731 -5.8109455 -0.48846588 4280295983
19.992151 -5.9239941 -0.48758635 4279967520
19.925768 -6.0375671 -0.48680732 4279835416
19.861609 -6.1514359 -0.48610368 4280032284
19.791082 -6.2629356 -0.48524925 4279900698
19.589619 -6.3316879 -0.48095199 4280229663
19.532362 -6.4458175 -0.4804745 4279835166
19.504759 -6.5696921 -0.48080119 4280429364
19.378048 -6.6596851 -0.47851434 4280363579
19.296251 -6.7642436 -0.47743377 4280298564
19.226143 -6.8724227 -0.47667989 4281153871
19.135708 -6.9728098 -0.47539821 4283521641
19.052267 -7.0751314 -0.47431764 4278850332
18.984184 -7.182704 -0.47366425 4278784537
18.915503 -7.2897081 -0.47301087 4286285968
18.838776 -7.393219 -0.47215644 4278719782
18.761494 -7.4960637 -0.471302 4279179580
18.715147 -7.6110411 -0.471302 4279245122
18.591423 -7.6940069 -0.46921626 4279246392
18.498716 -7.7889314 -0.46798488 4279707195
18.430359 -7.8936324 -0.46743199 4280099653
18.358664 -7.996592 -0.46680376 4280230465
18.283659 -8.0977545 -0.46610013 4279968059
18.21175 -8.1999397 -0.46549699 4281020733
18.15564 -8.3090353 -0.46534619 4281677620
18.105219 -8.4207001 -0.46537134 4280559137
18.046883 -8.5286436 -0.46519545 4280493096
17.85092 -8.5704298 -0.46119973 4281940542
18.072283 -8.9512177 -0.47039732 4285955699
18.020592 -9.0637369 -0.47049788 4283520851
17.766094 -9.0727596 -0.46489385 4281019708
17.556545 -9.1020079 -0.46054634 4281282125
17.484444 -9.2011833 -0.460094 4278981164
17.375629 -9.280508 -0.45861134 4289050062
17.302536 -9.3783741 -0.458159 4283721342
17.230652 -9.476656 -0.45775691 4292471550
17.258606 -9.6304245 -0.46024477 4289642189
17.050423 -9.6519356 -0.45594755 4285100673
16.983942 -9.7523918 -0.4557465 4285231220
16.927237 -9.8584318 -0.45584702 4286414446
16.864708 -9.9610939 -0.45579675 4279111174
16.786974 -10.054627 -0.45531929 4279835157
16.485844 7.189528 -0.6384359 4282136355
16.512196 7.0807552 -0.63772309 4283912766
16.531389 6.9692121 -0.63674772 4283912764
16.508297 6.840488 -0.63408411 4290887074
16.462959 6.7036428 -0.6305576 4291018147
16.520483 6.6091828 -0.63123286 4291675048
16.659311 6.5464292 -0.63520956 4292726706
16.753241 6.464951 -0.63738549 4292397480
16.816889 6.3712378 -0.63836086 4291805596
16.870653 6.2735043 -0.63896114 4292661934
16.893808 6.1643891 -0.63836086 4291542173
16.946367 6.0660028 -0.63896114 4290095758
17.049271 5.985076 -0.64158726 4294309087
15.972575 5.4972839 -0.59739363 4292795597
17.284296 5.830338 -0.64803994 4288123259
17.356752 5.736403 -0.64950305 4290425234
17.443913 5.6467214 -0.65156645 4290357907
17.597307 5.5773182 -0.6562559 4289766542
17.678919 5.4840403 -0.65813166 4289766288
17.78969 5.3989663 -0.66117048 4290227091
17.929779 5.3215523 -0.66537225 4290358160
18.034075 5.2323194 -0.66818589 4292069546
17.119806 4.8533921 -0.63127041 4294306518
17.136744 4.7447891 -0.63078266 4293387208
17.131771 4.6304255 -0.62946963 4293255620
17.116379 4.5137544 -0.62778145 4293123523
17.076006 4.3912253 -0.62515533 4293119413
17.04059 4.2708197 -0.62275434 4293249968
16.985899 4.146512 -0.61964053 4291540631
16.901159 4.0161076 -0.61540121 4290882703
16.8437 3.8934255 -0.61224991 4288119405
16.783422 3.7711625 -0.60902351 4287527786
16.743761 3.6544743 -0.60662252 4287725930
16.713079 3.5404859 -0.60459667 4286805089
16.658138 3.4221861 -0.60167044 4287594870
16.6455 3.3132772 -0.6003949 4286871406
16.632154 3.2046528 -0.59911937 4293779915
4.5474353 0.84757209 -0.13688755 4292858561
16.447956 2.9603102 -0.59064078 4293447862
16.386063 2.8454847 -0.58760202 4293972662
16.328308 2.7323556 -0.58475083 4294826684
16.241175 2.6154356 -0.58081168 4294299827
16.204576 2.5076344 -0.57882333 4294365620
16.195936 2.4046359 -0.57792294 4294300340
16.174768 2.3001502 -0.57657242 4294038195
16.138079 2.1939964 -0.57465911 4293710259
16.109613 2.089536 -0.5730834 4293579448
16.119158 1.9902825 -0.57297087 4293581002
15.945469 1.8695834 -0.56595546 4289238917
3.7651668 0.4183535 -0.10544933 4283847241
3.8243129 0.40117994 -0.10758772 4286478183
3.8644924 0.38143295 -0.10901331 4293845967
2.5171454 0.20187579 -0.058029383 4288057225
2.3968003 0.16266823 -0.053414941 4283448643
2.3099813 0.14255667 -0.050113559 4282595378
2.1811028 0.12119573 -0.045236506 4287662714
1.8284827 0.090414181 -0.03195592 4286414708
1.8170227 0.078676917 -0.031505734 4283782737
1.7955016 0.066714808 -0.030680388 4286677115
1.8088619 0.056096468 -0.031168088 4288189312
1.7542275 0.043641634 -0.029104725 4289503631
1.7095016 0.032044448 -0.027416512 4287857789
1.6896818 0.021307103 -0.026666194 4282328618
1.6767901 0.010857883 -0.026178494 4282066469
1.6768252 0.00056908827 -0.026178494 4282066469
1.6718006 -0.009689616 -0.025990911 4282460203
1.6687121 -0.019910946 -0.02587837 4283117872
1.6695577 -0.030167881 -0.025915883 4285613632
1.671339 -0.040460359 -0.025990911 4287846741
1.6870407 -0.051203448 -0.026591167 4290745222
19.968483 -0.73291522 -0.71339244 4294112750
19.961615 -0.85534018 -0.71331739 4294835701
20.082748 -0.98401952 -0.71808189 4294834672
20.28487 -1.1187314 -0.7259227 4294767596
20.453169 -1.2539417 -0.73252547 4294636523
20.529839 -1.3851359 -0.73571432 4290358687
20.719275 -1.5256858 -0.74317992 4290621083
21.20875 -1.82367 -0.76238799 4285819488
21.406128 -1.9730346 -0.77026635 4279767303
21.605446 -2.1251829 -0.77825719 4280624162
21.757975 -2.2750695 -0.78452229 4279375130
22.019722 -2.439121 -0.79495174 4280100399
22.205824 -2.5977597 -0.80256742 4280361776
22.275337 -2.8834069 -0.80646902 4280690740
22.259209 -3.0203004 -0.80654407 4280559408
22.017759 -3.8175774 -0.80215472 4281347892
21.97818 -3.9497757 -0.8015545 4280360997
21.920128 -4.078341 -0.80027896 4280492583
21.754368 -4.1857615 -0.79491419 4281282099
21.695932 -4.3127351 -0.7936762 4280295464
21.66123 -4.444171 -0.79337603 4279769638
21.528944 -4.5548639 -0.78936183 4280033072
21.24283 -4.6306844 -0.77945769 4279506730
21.012186 -4.7156405 -0.77169192 4279507494
21.025696 -4.854372 -0.77334261 4279770668
20.869118 -4.953289 -0.76846558 4279770668
20.832506 -5.0798259 -0.76824045 4279704105
20.621611 -5.1626563 -0.76130009 4280032810
20.416588 -5.3784122 -0.75586027 4279834402
20.343647 -5.4929042 -0.75432211 4279900195
20.261404 -5.6043062 -0.75244635 4279834917
20.186253 -5.7170844 -0.7508707 4280031783
20.111444 -5.8294306 -0.74933255 4280229925
20.032185 -5.9399371 -0.74764431 4280295715
19.646481 -6.3541107 -0.73841542 4279967004
19.553036 -6.4566784 -0.73627704 4279704346
19.496952 -6.571106 -0.73563927 4279901474
19.354496 -6.7886992 -0.73323828 4280427818
19.26355 -6.8898277 -0.73128742 4280559659
19.192747 -6.9976282 -0.73016196 4279572764
19.119474 -7.1041222 -0.72896147 4279901989
18.960928 -7.3112473 -0.72614777 4281018940
18.879435 -7.4132061 -0.72468466 4279506467
18.78998 -7.5114737 -0.72292143 4279638566
18.700958 -7.6093006 -0.7211957 4279639082
18.6373 -7.7170224 -0.72052044 4279441701
18.564734 -7.8207583 -0.71950752 4279638563
18.481493 -7.9195647 -0.71808189 4279704095
18.358248 -8.1348343 -0.71706897 4279638302
18.299788 -8.2436314 -0.71673131 4279638555
18.231598 -8.3478565 -0.7160185 4279901725
18.204496 -8.4709492 -0.71703142 4280099104
18.195541 -8.602994 -0.71883219 4279901727
18.135204 -8.7110167 -0.71853209 4280362276
18.017988 -8.9284697 -0.71815693 4279967255
17.933407 -9.0240345 -0.71691889 4279770141
17.848333 -9.1188974 -0.7156809 4279440925
17.501974 -9.0777836 -0.70341325 4279704099
17.483082 -9.2045555 -0.7049889 4279769120
17.420986 -9.3088303 -0.70476377 4279769374
17.329281 -9.3969707 -0.70330065 4279571995
17.252037 -9.4925251 -0.70247531 4279703581
17.203064 -9.6035624 -0.70288801 4279704095
17.084686 -9.6754503 -0.70033693 4279769625
17.006802 -9.7696438 -0.69954908 4280492057
16.949989 -9.8758249 -0.69969916 4281083932
16.914022 -9.9943838 -0.70078713 4281214489
16.821522 -10.079487 -0.69943655 4280688660
16.170938 7.0622625 -0.84766543 4283779906
16.191942 6.9534469 -0.84646374 4284109130
16.211302 6.8442507 -0.84521204 4282399541
16.239155 6.7389088 -0.84446096 4281742640
16.267252 6.6338592 -0.84376001 4293519574
16.301161 6.5313201 -0.84340948 4291807665
16.350224 6.4348335 -0.84391022 4291740841
16.439703 6.3538346 -0.846614 4292331950
16.555882 6.2822576 -0.85076976 4292134571
16.637169 6.1965928 -0.853073 4291872167
15.855974 5.7950349 -0.80936188 4291935904
15.87149 5.6905551 -0.80831045 4291147423
15.895744 5.5894179 -0.80775964 4286940022
15.843821 5.4621501 -0.80320328 4294044639
15.785258 5.3338122 -0.79834652 4289567870
15.775972 5.2230406 -0.79614341 4290485876
15.753572 5.1085782 -0.79328942 4292331942
15.703711 4.9861236 -0.78903347 4291412905
15.623377 4.8552837 -0.78322536 4288647289
15.566875 4.7331743 -0.77871907 4288712314
15.51617 4.6139355 -0.77456325 4288581500
15.499114 4.5055366 -0.77220994 4287793011
15.469785 4.3942456 -0.76925582 4287133791
15.457961 4.288559 -0.76725304 4294568659
15.435784 4.180572 -0.76474953 4294701013
15.38583 4.0658722 -0.76084405 4294173644
15.353427 3.9566808 -0.75788993 4292330927
15.276678 3.8370888 -0.75268263 4293514431
15.232996 3.7268982 -0.74922782 4293119416
15.214772 3.6236384 -0.74712485 4293184179
14.393168 3.3347037 -0.70371419 4294236089
15.071999 3.394727 -0.73756152 4294169783
15.057422 3.2944953 -0.73575896 4294037677
15.031436 3.1922877 -0.73340571 4294959809
14.989115 3.0872986 -0.73025131 4294103220
4.707273 0.93866116 -0.20366503 4286937451
14.939578 2.8864472 -0.7258451 4294169013
14.930503 2.7897704 -0.72449327 4293841329
14.932596 2.6954436 -0.72374219 4293841329
14.967549 2.6070259 -0.72469354 4293773483
15.041376 2.5248973 -0.72764766 4294826686
15.127573 2.4440322 -0.73125267 4293643699
15.233079 2.3652699 -0.73585916 4292263853
15.305588 2.2804453 -0.73881328 4292133809
15.408277 2.1991966 -0.74331957 4292398011
15.500646 2.1154215 -0.74732518 4293386194
15.554929 2.025692 -0.74942809 4294967284
15.852517 1.9656259 -0.76384825 4293782494
3.6809888 0.43259835 -0.14883839 4289634188
3.7808468 0.42086235 -0.15374525 4293447351
16.398525 1.7275283 -0.78968436 4281017388
16.50522 1.6364415 -0.79454118 4283256403
16.607435 1.54374 -0.79919767 4284901227
16.699179 1.4489813 -0.80335349 4283321682
2.4750896 0.18318795 -0.087452553 4288189327
2.3685534 0.16064535 -0.082044996 4281610540
2.3585296 0.14542758 -0.081494227 4285424990
2.3394339 0.12983631 -0.080492824 4294635230
1.847418 0.090915553 -0.055758245 4283124280
1.8060337 0.07774698 -0.053655304 4284441429
1.8054786 0.06662643 -0.053605236 4286810754
1.8008621 0.05539019 -0.053354882 4287797649
1.7622296 0.04335532 -0.051402152 4289505698
1.6925629 0.03120449 -0.047897249 4288647566
1.6577693 0.020364402 -0.046144798 4282197801
1.6698478 0.010274303 -0.046745643 4282132262
1.6638869 2.380251e-05 -0.046445221 4282263848
1.6588622 -0.01015857 -0.046194874 4282263848
1.6577698 -0.02032543 -0.046144798 4282657834
1.6556168 -0.030461598 -0.046044663 4285547838
1.6553986 -0.040619701 -0.046044663 4287651926
19.859032 -0.71830988 -0.95927149 4287395433
19.951044 -0.84423923 -0.96412832 4285552716
20.073177 -0.97282147 -0.97053725 4287990406
20.159576 -1.1010299 -0.9751938 4287531398
20.327898 -1.2353586 -0.98400611 4289571240
20.626863 -1.3805906 -0.99942762 4294967293
21.018892 -1.7959734 -1.0206072 4294638332
21.614485 -4.4224143 -1.069075 4280295456
21.56349 -4.5500078 -1.0678732 4280229665
19.974686 -5.3818016 -1.0001285 4279900959
19.926844 -5.5002766 -0.99937755 4279703068
19.796444 -5.7266364 -0.99617308 4279769374
18.320326 -8.5129604 -0.97579461 4280756520
18.257812 -8.6205215 -0.97524387 4280164897
17.890484 -9.1284084 -0.96993643 4280955444
17.800436 -9.2205563 -0.96803373 4280099882
17.746176 -9.3309984 -0.96818393 4280231219
17.655985 -9.4223146 -0.9663313 4282270299
16.185091 7.0550179 -1.0612769 4283252016
16.197802 6.9426003 -1.0592278 4282265637
16.231817 6.8395944 -1.058669 4280818193
16.267023 6.737196 -1.0582343 4281475868
16.291418 6.6304846 -1.0571166 4285819993
16.299358 6.5174284 -1.0549434 4292465086
16.252645 6.3833637 -1.0491687 4288910728
16.211422 6.2526336 -1.0438286 4287857526
16.274683 6.1625867 -1.0455052 4287331696
16.387972 6.0907736 -1.0505347 4289306264
16.457853 6.0020719 -1.052708 4289767068
15.86286 5.6750636 -1.0109811 4287990139
15.838049 5.5568089 -1.0070691 4288910981
15.548123 5.3481789 -0.98577094 4293450948
15.446345 5.2074037 -0.97695363 4293318333
15.24866 5.0367789 -0.96192694 4293185720
15.140633 4.8982701 -0.95286125 4292594352
15.05337 4.7682095 -0.94522375 4292989367
15.033725 4.6606822 -0.94205695 4292200103
14.978944 4.543149 -0.93665481 4292791213
14.865879 4.4094362 -0.92752701 4292790700
14.740237 4.2739487 -0.9176541 4293251251
14.685521 4.160573 -0.91243827 4293250221
14.579949 4.0341916 -0.90399349 4293644720
14.158526 3.5459423 -0.87089753 4293642157
14.137353 3.4485941 -0.86816543 4294107840
14.139796 3.3574038 -0.86698562 4287205235
14.154296 3.269233 -0.86661303 4292729547
14.173115 3.1821034 -0.86655098 4294569179
5.0210242 1.0952445 -0.28255928 4293446312
14.378069 3.0432746 -0.87716901 4294239445
4.8493028 0.99562293 -0.27082354 4294367160
14.589557 2.9014471 -0.88828379 4293647308
14.664909 2.8230023 -0.89194733 4294831330
14.731997 2.7422805 -0.89511406 4294898922
14.983321 2.6940422 -0.90995449 4291545022
15.156912 2.6293464 -0.91988951 4284571225
15.233793 2.5464966 -0.92373931 4281216297
15.359496 2.4707267 -0.93069381 4279570702
15.466098 2.3906126 -0.93646854 4283848019
15.581178 2.3106005 -0.94280207 4283980893
15.686961 2.2280025 -0.94857681 4283454808
15.78638 2.1433876 -0.95397896 4286678665
15.911082 2.0609689 -0.96099555 4291481555
15.982863 1.970628 -0.9647212 4286745229
3.6370709 0.42610076 -0.19066051 4289374104
16.245905 1.800952 -0.97974789 4289771190
16.415474 1.7178519 -0.98968291 4292731621
16.495234 1.6239395 -0.9940294 4293916665
16.604275 1.5318627 -1.0002388 4293916666
16.746611 1.4414179 -1.0085593 4294573823
16.844679 1.3457873 -1.0141478 4294507773
2.4117806 0.1781349 -0.1132917 4281278744
2.4118326 0.16326588 -0.1132296 4286740339
2.3789182 0.14638545 -0.11111842 4285096027
2.4355783 0.13486722 -0.11459567 4285554520
1.8910714 0.093167715 -0.080630392 4284962119
1.795881 0.077454716 -0.074669391 4286805354
1.8152729 0.067130685 -0.075849168 4286609005
1.8156506 0.055991113 -0.075849168 4287135600
1.8159599 0.044849437 -0.075849168 4285424465
1.6894674 0.031381223 -0.067963265 4288647558
1.6696682 0.020770608 -0.066721387 4282066469
1.6697643 0.010525323 -0.066721387 4282132262
1.6727916 0.0002794489 -0.066907667 4282394664
1.6737599 -0.009990802 -0.066969767 4282329641
1.673667 -0.02026061 -0.066969767 4282986799
1.6695197 -0.030455913 -0.066721387 4285417535
1.675288 -0.040846676 -0.067093953 4286732364
1.6660274 -0.050849151 -0.066535108 4286800213
20.030182 -5.8096619 -1.2603495 4282863442
20.027647 -5.9423919 -1.2625228 4280626743
19.810223 -6.1433682 -1.2532088 4284114534
19.525103 -6.4512305 -1.242156 4282141512
19.442593 -6.55656 -1.2393619 4281812293
19.297239 -6.6396875 -1.2324694 4282866009
19.019756 -6.675005 -1.2168839 4282537299
18.951189 -6.7818303 -1.2150832 4281484358
18.872654 -6.8846445 -1.2126615 4281548870
18.823505 -6.9978805 -1.2122269 4285891460
18.76248 -7.1065302 -1.2110471 4279574807
18.303076 -8.3844461 -1.2153316 4282272847
18.282953 -8.5113382 -1.2175049 4280823859
18.207829 -8.6126909 -1.2159525 4286414983
17.816872 -9.1067419 -1.2076941 4281349432
17.77129 -9.2214088 -1.2084391 4280757295
17.718788 -9.3326044 -1.2087497 4279704099
17.688477 -9.4557352 -1.2106745 4279178012
15.672319 6.8412094 -1.2394248 4281214500
15.665435 6.7240672 -1.2354785 4281675050
15.635654 6.5979609 -1.2297454 4282004269
15.581891 6.4629216 -1.2221508 4282135338
15.6388 6.3743443 -1.2235656 4282530864
15.697983 6.2864237 -1.2252035 4280885534
15.783588 6.2086048 -1.2290008 4279307282
15.868826 6.129971 -1.2327981 4293979620
16.04973 6.0869541 -1.2442645 4289835934
16.123222 6.0019312 -1.2471683 4286480758
16.18129 5.910759 -1.2488807 4290823100
16.184397 5.7995849 -1.2462748 4289441710
15.890401 5.5844254 -1.220215 4285889149
15.776347 5.4358058 -1.2085253 4279375383
15.694139 5.2999673 -1.1994416 4278453765
15.569207 5.1515579 -1.1870818 4278585351
15.466767 5.0125704 -1.1765834 4278848010
15.357511 4.8732262 -1.1656383 4278716422
15.289986 4.7487259 -1.1580437 4278914316
15.169038 4.6092892 -1.1463541 4279638039
15.070857 4.478621 -1.1365258 4280492835
14.990801 4.354897 -1.1281866 4280690214
14.887733 4.2260609 -1.118135 4281413937
14.805758 4.104784 -1.1097958 4281282864
14.699755 3.9784195 -1.0996697 4281875001
14.63808 3.8654819 -1.0930431 4281348908
14.534051 3.7427549 -1.0832149 4280690214
14.449382 3.6265504 -1.0749502 4280820519
14.353183 3.5089216 -1.0658665 4278650631
14.297805 3.4025412 -1.0599844 4285494382
14.187259 3.284374 -1.0499327 4287664785
4.8500371 1.0906906 -0.33380926 4294109404
4.9978971 1.0918031 -0.34460545 4290095780
5.0210857 1.0646361 -0.34587121 4291411894
14.652331 3.0152414 -1.0795665 4281021748
14.730212 2.9371796 -1.0841084 4281614139
14.827266 2.862057 -1.0901393 4284640102
14.929833 2.7869515 -1.096617 4288456617
15.029088 2.7101631 -1.1028714 4288128173
15.144662 2.635169 -1.1103915 4288061352
15.214638 2.5512679 -1.1144866 4288126628
15.349126 2.477098 -1.1234958 4290758861
15.472434 2.3996911 -1.1316861 4293982459
15.560843 2.3157237 -1.1372703 4294375419
15.672496 2.2341402 -1.1446415 4294967295
