# .PCD v0.7 - Point Cloud Data file format
VERSION 0.7
FIELDS x y z rgb
SIZE 4 4 4 4
TYPE F F F U
COUNT 1 1 1 1
WIDTH 1107
HEIGHT 1
VIEWPOINT 0 0 0 1 0 0 0
POINTS 1107
DATA ascii
32.257072 9.579689 2.0874133 4287864210
32.008499 9.2925348 2.0679336 4287075720
31.675053 8.9853697 2.0432184 4281085481
31.297689 8.6711912 2.0158861 4288455067
31.014034 8.3880463 1.9946408 4289375142
30.752222 8.115077 1.9749177 4288124561
30.379972 7.8177829 1.9483764 4289835433
30.094324 7.5477023 1.9274356 4281874226
29.779364 7.2747931 1.9047904 4289505700
29.526295 7.0212765 1.8861628 4288519571
29.176914 6.7493229 1.8616304 4289571742
28.809744 6.4784207 1.8361242 4288781199
28.597363 6.2465739 1.8204186 4280687634
28.441816 6.0299993 1.8083653 4290227617
27.95619 5.7480311 1.7758584 4290096804
27.838221 5.5459661 1.7663622 4289504920
27.859968 5.3727813 1.7656317 4290952368
27.930677 5.2088714 1.7680056 4283715403
28.070171 5.0568585 1.7747018 4290822326
28.19409 4.9007654 1.7804849 4288782743
28.3585 4.7502675 1.7888248 4288060558
28.49157 4.5930104 1.7952774 4288453008
28.665197 4.4407167 1.8042867 4287993488
28.768915 4.2761922 1.8090351 4284638558
28.848963 4.107326 1.8123832 4285493612
3.8067372 0.51850343 0.26952314 4283649870
3.7989585 0.49372202 0.26885352 4284637535
3.7939918 0.46942303 0.26836652 4285756014
3.3437595 0.39294714 0.24054694 4285557865
3.0554421 0.34010518 0.22271076 4285690223
2.8549626 0.30009207 0.2102924 4285822320
2.6064358 0.2578432 0.19495207 4285559147
2.4549091 0.22767444 0.18557742 4286217077
2.3051047 0.19954725 0.17632452 4286085492
2.1978364 0.17669958 0.16968922 4285953654
2.1092913 0.15657665 0.16421053 4286019447
2.0195897 0.13747962 0.15867096 4285558894
1.9735714 0.12219505 0.15580988 4287466117
1.9174775 0.10692673 0.15234004 4282201648
1.8931744 0.093927808 0.15081817 4282858033
1.8767624 0.081576332 0.14978331 4283187001
1.865258 0.069614947 0.14905283 4282991680
1.796811 0.056036465 0.14485249 4289440422
1.6833676 0.042185608 0.13791281 4294637041
1.6596434 0.031408135 0.13645184 4283712064
1.6528183 0.021136438 0.13602571 4282461227
1.6479262 0.010962498 0.13572134 4282657836
1.6349868 0.00084712554 0.13492998 4282919725
1.6379555 -0.0092025045 0.1351126 4282985261
1.6428585 -0.019312466 0.13541697 4283051052
1.6506931 -0.02953721 0.13590397 4282919976
1.6654485 -0.040028308 0.13681708 4282788391
18.058748 -7.215488 1.2212324 4284438608
18.190733 -7.3979836 1.2328594 4284110159
18.793356 -7.7778039 1.2756541 4284833368
18.801394 -7.9166007 1.2793674 4281542943
19.261688 -8.2499313 1.3131528 4280490766
19.528242 -8.5062857 1.334276 4279570944
20.069801 -8.8891029 1.3739052 4280031755
20.729334 -9.3337917 1.4216917 4281085211
20.923079 -9.5758743 1.4385538 4281150488
21.469397 -9.9856987 1.4792788 4283190587
21.794865 -10.300217 1.5053937 4286085481
22.676044 -10.887391 1.5693119 4287137401
17.843904 -8.9750938 1.2533741 4290098603
17.735163 -9.0571747 1.2497215 4288386704
17.673052 -9.1626091 1.2492955 4289701024
17.591764 -9.2578592 1.247591 4289503904
17.506456 -9.3505783 1.2456431 4289504922
17.411896 -9.4378414 1.2430863 4289308311
17.339666 -9.5368042 1.2421124 4289637276
17.269491 -9.6366968 1.2413208 4290690473
17.204824 -9.7395277 1.2409558 4289901473
17.130026 -9.8364611 1.2399209 4291283130
17.036572 -9.9222946 1.2376077 4291808702
16.970213 -10.023596 1.2372425 4291610034
31.61657 13.802422 1.7166117 4292335816
31.658445 13.590041 1.7143728 4289046675
30.838512 13.014525 1.666622 4290427552
29.169506 12.09978 1.5743822 4290623902
29.239498 11.919064 1.5741874 4283452730
30.330151 12.147206 1.6276331 4291805369
29.252508 11.507791 1.5673242 4290225561
28.913555 11.170053 1.5459557 4292463811
28.837732 10.937879 1.5384597 4288123014
28.751728 10.703919 1.5305256 4286479218
28.76433 10.508105 1.5277997 4285951342
27.586201 9.8862314 1.4634994 4283782226
27.398518 9.6296673 1.4506978 4284965728
27.019875 9.3106918 1.4281611 4285029983
27.038643 9.1319408 1.4262141 4284965468
27.037273 8.9470339 1.4232936 4284439635
27.107813 8.7862034 1.424121 4283384378
28.297916 8.9804955 1.4822395 4284371015
28.347719 8.8052111 1.4819962 4290620068
28.3993 8.6305265 1.4818988 4286935149
28.462255 8.45924 1.4824343 4286409577
28.511705 8.2838821 1.4823369 4286607722
28.547585 8.1046896 1.4816067 4286017125
28.585228 7.9261689 1.4810226 4286477418
28.633322 7.7506242 1.4810226 4286017893
28.665855 7.570962 1.4802926 4285755235
28.752396 7.4053936 1.4823369 4285819488
29.207073 7.3317146 1.5029266 4286213479
29.21949 7.1445355 1.5013202 4286213993
28.996546 6.9017334 1.4879832 4285950821
28.919632 6.6961918 1.4820448 4284635476
28.971869 6.5212507 1.4826289 4286017388
28.231926 5.9916372 1.4418876 4284965981
28.18207 5.8005733 1.4376042 4284834912
27.862545 5.5568099 1.4199836 4284835171
27.847082 5.3762751 1.4175498 4285229422
27.923729 5.2135587 1.4197402 4285690484
28.010237 5.0520544 1.422466 4285163109
28.034805 4.8790636 1.422174 4285493101
27.985411 4.6937332 1.41828 4285755764
28.0196 4.5228853 1.4185721 4285494130
28.070513 4.3545504 1.4197402 4286085753
28.220196 4.2006183 1.4258246 4285295472
3.8762677 0.55167782 0.22621837 4286743422
3.8350451 0.52180982 0.22402799 4288585626
28.567093 3.716166 1.4393078 4286676089
28.597288 3.5417941 1.4396971 4287334018
3.8241611 0.44879633 0.22305447 4284175955
3.595551 0.39954579 0.21171311 4290227889
3.584028 0.37601283 0.21103165 4284043345
3.7224395 0.36750126 0.21770018 4281413159
2.647541 0.24464701 0.16498467 4284504919
2.3046927 0.19855893 0.14814296 4285030743
2.2033215 0.17616037 0.14312939 4285228891
2.0639155 0.15220082 0.13626616 4285492064
2.0289361 0.13708934 0.13451384 4285688675
1.8951575 0.11629554 0.12794265 4287462517
1.8928436 0.10449786 0.12779662 4283776055
1.9114056 0.093773589 0.12867278 4283709231
1.8181452 0.077961087 0.1240973 4283052584
1.8016213 0.066169456 0.12326981 4282593324
1.7900134 0.054739472 0.12268571 4284239435
1.7194221 0.041976094 0.11922975 4290489770
1.6876912 0.030819384 0.11767214 4282987569
1.6638789 0.020156084 0.11650392 4282461225
1.6559808 0.0098929489 0.11611452 4282788907
1.6450233 -0.00027413783 0.11557909 4282919979
1.6409955 -0.010345471 0.11538438 4283051052
1.637905 -0.0203791 0.11523836 4283116843
1.6397464 -0.03046439 0.11533571 4283182891
1.6025831 -0.039638311 0.11353472 4283051311
16.776327 -5.9935904 0.90358585 4281084710
16.751438 -6.1008582 0.90421861 4289834137
16.898161 -6.2719841 0.91380769 4288845171
16.860294 -6.3759046 0.91385639 4288316507
16.814329 -6.4767251 0.91351563 4288511833
16.817047 -6.5965486 0.91575474 4289365855
16.770689 -6.6973896 0.91546267 4291012480
16.67746 -6.7791071 0.91273683 4289237876
16.6014 -6.8671865 0.91093582 4289304447
16.538698 -6.9603996 0.90986496 4290883994
16.475475 -7.0531015 0.90879411 4288909172
16.527134 -7.1955199 0.91385639 4287462748
16.422392 -7.2701116 0.91064382 4288185701
16.493151 -7.4227929 0.91682559 4289831816
16.571735 -7.5807681 0.9234941 4294966245
16.50317 -7.6722045 0.92232591 4294900449
16.444946 -7.7682023 0.92174178 4289505419
16.388866 -7.8650713 0.92130369 4287662177
15.372419 -7.4937434 0.86883157 4284569649
15.313617 -7.5817227 0.86815012 4279899393
15.247175 -7.6656737 0.86707926 4279768583
15.227431 -7.7731595 0.86858821 4285032267
15.097859 -7.824172 0.86411005 4288257664
15.021278 -7.9017859 0.86255246 4286283109
14.96282 -7.9886322 0.86201704 4285953115
14.895078 -8.0703011 0.86099482 4289044620
14.83215 -8.1543264 0.86026472 4285820764
14.770495 -8.2388573 0.8596319 4284965191
14.767479 -8.3563833 0.8623091 4286873691
14.64489 -8.4060688 0.85831767 4289439618
14.580952 -8.4887352 0.85763621 4290492316
14.516549 -8.5709352 0.85695475 4294769128
14.455116 -8.6547155 0.85646802 4279175684
30.220455 13.178885 1.238762 4283648328
29.185741 12.515098 1.1944883 4281543718
29.054789 12.248439 1.1862826 4284503888
28.764723 11.918833 1.1718773 4289504154
28.803068 11.728168 1.1705279 4280358670
28.855932 11.543791 1.1697985 4283845449
28.927153 11.366882 1.169835 4289372813
27.976379 10.795601 1.1299376 4292794311
28.038355 10.622322 1.1297917 4280555281
27.10919 10.080547 1.0910978 4283056953
27.139551 9.9027138 1.0898943 4280294929
25.700981 9.1995296 1.0317987 4288978827
25.834265 9.0688 1.0347892 4294766038
27.078161 9.319212 1.0806676 4284107323
27.042036 9.1215878 1.0770936 4282990639
27.054796 8.9413767 1.0754524 4288848259
27.074923 8.7641249 1.0741396 4282795303
30.110903 9.5431089 1.1883249 4284240189
28.410749 8.8128328 1.1211485 4284700230
28.444208 8.6322479 1.1203827 4283910460
28.48131 8.4530058 1.1197991 4290950572
28.520164 8.2744694 1.119325 4286016867
28.545401 8.0922308 1.1183769 4290624430
25.938271 7.1815329 1.0177946 4293387223
25.952906 7.0144219 1.0167005 4293517782
26.015747 6.8603964 1.0174663 4285358937
26.098003 6.7110896 1.018998 4283452480
28.481207 6.9524193 1.1055032 4281084196
28.332764 6.7322531 1.0983552 4281281575
28.369644 6.5573797 1.0982093 4282465849
28.381586 6.1942577 1.0957294 4281018917
28.246994 5.9835486 1.0893108 4282203191
28.055092 5.7632647 1.0808135 4283848016
27.817455 5.5367846 1.070675 4284242774
27.741001 5.3448224 1.0665904 4284243028
27.707453 5.1622429 1.064147 4284308821
27.75631 4.9953222 1.0648035 4284308821
27.814005 4.8297052 1.0658246 4283650637
27.849033 4.6599402 1.0660434 4283387465
27.904724 4.493422 1.0670645 4282663743
27.971275 4.3282294 1.0685233 4284505177
4.0152464 0.59644353 0.18374184 4286216313
3.9218705 0.55800933 0.18016785 4286216313
28.242268 3.8392873 1.0757443 4288846477
28.468458 3.6922703 1.0832205 4288185978
28.581821 3.5287859 1.0865756 4283516733
3.7130475 0.43564779 0.17203519 4286281590
3.6302323 0.40337461 0.16889884 4286413694
3.2778199 0.34390697 0.15587929 4294439413
3.211247 0.31702197 0.15336291 4282334780
2.9772944 0.27551854 0.14471969 4284441179
3.0516107 0.26351199 0.14738196 4283058760
30.653456 2.4540861 1.1578366 4283717971
2.2822349 0.16898529 0.11911825 4284967018
2.3161314 0.15720636 0.12032174 4286413946
2.1823971 0.13470438 0.11539838 4286871158
1.862887 0.10357008 0.10369174 4282461223
1.8225642 0.090122774 0.1021965 4283643699
1.8031148 0.078077666 0.10146711 4283578677
1.8105505 0.067270733 0.1017224 4282657582
1.775969 0.05508342 0.10044597 4289437349
1.7143337 0.042657938 0.098184876 4280885535
1.6865866 0.031620085 0.097163737 4282264359
1.6677629 0.021035716 0.096470818 4282394915
1.6588668 0.01074595 0.09614259 4282789418
1.654904 0.00056669704 0.095996723 4283051563
1.6528777 -0.0095755691 0.095923781 4283116843
1.6527879 -0.019717256 0.095923781 4283182379
1.6516367 -0.029839916 0.095887311 4283378475
1.6574168 -0.040120102 0.096106127 4283182127
16.65826 -5.8429227 0.67983365 4282202424
16.600454 -5.9372849 0.67899483 4285097569
16.546812 -6.0328693 0.67833841 4278978307
16.49262 -6.1280198 0.67768198 4278780416
16.392094 -6.2053947 0.67523849 4278912000
16.306154 -6.2875209 0.67337859 4279042817
16.233782 -6.3743057 0.67206568 4279042560
16.166527 -6.4626656 0.67097163 4279370753
16.106203 -6.5534525 0.67016929 4280620823
16.04353 -6.6429791 0.669294 4281081114
15.977601 -6.7308197 0.66830933 4280687385
15.914874 -6.8196759 0.66747057 4279306503
15.851659 -6.9080167 0.66663176 4281215521
15.811716 -7.0063658 0.66674119 4283190073
15.719226 -7.0810871 0.66477185 4285689442
15.64368 -7.1628432 0.66349542 4290622645
15.576784 -7.2481556 0.66258365 4289833121
15.509431 -7.3329172 0.66167194 4283451703
15.438022 -7.4153948 0.66061431 4283782207
15.366186 -7.4972725 0.65955675 4280493846
15.295717 -7.5794358 0.65857208 4279902228
15.229283 -7.6632633 0.65776974 4285692010
15.170408 -7.7506533 0.65729564 4286283882
15.110147 -7.8371491 0.65678507 4286020199
15.047626 -7.9222665 0.65620154 4286349164
14.97846 -8.0036154 0.65536273 4284243788
14.904471 -8.0820322 0.65434164 4279243782
14.844094 -8.167551 0.65390396 4283520327
14.774503 -8.2477617 0.65310168 4285888605
14.708836 -8.3298893 0.65248168 4285756750
14.645315 -8.4130144 0.6519711 4286284377
14.584785 -8.4976873 0.65160644 4286809956
14.519464 -8.5793915 0.65105939 4286084183
14.457118 -8.6626701 0.65065819 4284437820
29.088058 12.69244 0.80588144 4280228623
29.076275 12.47548 0.80352843 4281347107
28.642906 12.081956 0.79011393 4281214499
28.666634 11.885302 0.78880399 4281017120
28.683474 11.686549 0.78734857 4286542441
27.640928 11.064466 0.75823933 4282859825
26.943691 10.403557 0.73662573 4282334012
26.986454 10.230241 0.73609203 4282791742
27.034664 10.059232 0.73572814 4288120971
25.583996 9.3410797 0.69667327 4282004786
25.604128 9.1707754 0.69572723 4280490517
25.625961 9.0015697 0.69485396 4282068517
25.785627 8.8802996 0.69754654 4281807404
26.086849 8.8053722 0.70387781 4282266936
26.086285 8.6272459 0.70249516 4283977041
26.161556 8.4744158 0.70307732 4284239178
26.944899 8.5458755 0.72170722 4282660654
27.086573 8.408247 0.72398746 4283712313
27.22566 8.2686205 0.72621918 4283647037
27.375546 8.1310177 0.72874194 4283515966
27.453722 7.9712553 0.72946972 4283648070
27.55405 7.8173885 0.73077959 4283845960
26.031166 7.2129765 0.69123954 4283319616
26.035368 7.0424123 0.69024497 4284305230
26.078091 6.8825302 0.69024497 4289039757
26.146938 6.7293663 0.69092423 4280684562
26.26046 6.58705 0.69274354 4281544235
26.46839 6.4668498 0.69694012 4281480494
27.871113 6.6286755 0.7309494 4280362781
27.846977 6.4426618 0.72934842 4280361501
27.770897 6.2457852 0.72648597 4280427040
27.731028 5.8802562 0.72364783 4280558626
27.644188 5.6848145 0.72061563 4281611057
27.488344 5.4771795 0.71590966 4281742389
27.536161 5.3112516 0.71627349 4282136633
27.528919 5.1348591 0.71530318 4282334012
27.40938 4.9387183 0.71159178 4281544496
27.32196 4.7500629 0.70870513 4281347117
27.285519 4.571424 0.70710409 4281018150
27.402868 4.4184022 0.70931154 4281215782
27.494667 4.2602839 0.71091253 4280689953
3.8615186 0.57308447 0.13052289 4285953905
27.715105 3.9468107 0.71508485 4288847258
27.928989 3.8025818 0.71974236 4283714885
28.106449 3.6512387 0.72352654 4282529068
28.356516 3.5069425 0.72910583 4282792761
3.7640927 0.44106507 0.12775752 4282794299
3.7985227 0.42149857 0.12853375 4289111456
3.7821467 0.3961986 0.12807286 4287730065
3.0642312 0.30177367 0.11051029 4294572024
2.9575224 0.27291086 0.1078662 4285361769
2.9083459 0.2503655 0.10662906 4289111209
30.695164 2.4639523 0.78300643 4286347124
2.4037418 0.1770352 0.094281889 4284701795
2.3239932 0.15679148 0.092317015 4286807156
2.3089464 0.14154202 0.091928899 4283913032
1.8346467 0.1009305 0.080382228 4284702807
1.801283 0.087991014 0.079557464 4288057223
1.793799 0.076590523 0.079363406 4287727743
1.7682607 0.064616203 0.078732707 4284898384
1.7776171 0.054044463 0.078951031 4283320378
1.6859707 0.040844962 0.076719314 4288647820
1.6721961 0.030236468 0.076379709 4282527018
1.6613544 0.019836472 0.076112874 4282789161
1.6484488 0.0095576551 0.075797528 4282985770
1.6444776 -0.00055869983 0.075700492 4282985770
1.648442 -0.010672067 0.075797528 4283051563
1.6493452 -0.020798413 0.075821787 4283182636
1.6521851 -0.030972306 0.075894557 4283444531
1.6759498 -0.041689262 0.076476738 4283182387
1.7316203 -0.053668443 0.077835172 4286803575
16.687117 -5.8497863 0.46486673 4281412649
16.620785 -5.9413004 0.4640905 4281018918
16.553959 -6.0322208 0.46331424 4280558880
16.495079 -6.1256771 0.46275631 4280690466
16.40295 -6.2062583 0.46134937 4280756259
16.344038 -6.2988811 0.4608157 4280427294
16.235283 -6.3716602 0.45899636 4280558367
16.172672 -6.4618864 0.45838994 4280426781
16.122532 -6.5568566 0.45812309 4280689952
16.057055 -6.645339 0.45746812 4280492574
15.99755 -6.73598 0.45698297 4280492833
15.939376 -6.8269291 0.45654634 4280493348
15.856858 -6.9070392 0.455479 4280756007
15.804124 -6.9997525 0.45521218 4281545525
15.722589 -7.0793562 0.45419335 4282926663
15.651584 -7.1632166 0.45346561 4283057986
15.582862 -7.247736 0.45281065 4281281063
15.510981 -7.3304014 0.45208293 4281608493
15.427857 -7.4072661 0.45106411 4280950817
15.379421 -7.5004764 0.45099133 4281280292
15.311608 -7.5840535 0.45040914 4281279779
15.24871 -7.6697764 0.44997251 4281279782
15.179994 -7.752286 0.44939032 4281279780
15.114389 -7.836081 0.44890517 4281082664
15.055408 -7.9230871 0.44861406 4280754726
14.973881 -7.9978919 0.44771653 4280754980
14.917493 -8.0858088 0.44752246 4280558117
14.845698 -8.1651449 0.44691604 4280821289
14.776986 -8.2458544 0.44640663 4280821289
14.712192 -8.3284903 0.44601849 4280426529
14.646073 -8.4101448 0.44560611 4280755494
14.581235 -8.4923067 0.44524226 4280689701
14.521967 -8.577549 0.44504818 4280624423
14.45534 -8.6582737 0.44466007 4280755755
28.707756 12.310143 0.40672374 4280821792
28.811316 12.145803 0.40709165 4280755745
26.849455 10.932714 0.3800683 4281345832
26.077686 10.432397 0.36935154 4281149223
26.995554 10.607892 0.38024634 4281149989
26.629141 10.275743 0.37476334 4280689438
25.741961 9.5721617 0.36195779 4280492059
25.71003 9.3811293 0.36081848 4281610025
25.721916 9.2070246 0.3602488 4279964684
25.770378 9.0463753 0.36015388 4284503890
24.819382 8.5418653 0.34752637 4279109377
24.857115 8.3846207 0.34734833 4285753442
24.924236 8.237277 0.34755009 4289568407
25.025681 8.1008186 0.34819096 4289502097
25.358019 8.0368319 0.35171574 4288515456
27.111603 8.4098654 0.37290007 4291280038
27.188528 8.2511921 0.3732205 4293714379
27.270281 8.0935993 0.37361214 4285095500
27.35112 7.9353142 0.37400377 4282464046
27.459902 7.7845221 0.37475148 4282332719
27.57268 7.6340265 0.3755585 4281675302
26.293646 7.1065111 0.35926378 4281543716
26.253607 6.9231167 0.35824314 4282069547
26.303339 6.7638888 0.35833809 4287924864
26.348227 6.6033397 0.35838553 4294043614
25.670376 6.2663193 0.34961513 4281015578
25.709314 6.108922 0.34962699 4280557850
25.752159 5.9524083 0.34969819 4280690466
26.557955 5.9672275 0.35906202 4280690214
26.77187 5.8429613 0.361222 4280229663
26.985538 5.5435648 0.36296657 4280887591
26.983742 5.3708539 0.36253932 4280558880
27.018152 5.2055621 0.36256307 4280887845
27.029926 5.0360208 0.3623257 4281149734
27.075077 4.8727303 0.36250374 4281873457
27.098557 4.7054825 0.36243251 4285690220
27.114098 4.5369754 0.36227822 4285755749
4.0771313 0.65686339 0.085007086 4281741621
4.1166592 0.63733846 0.085434332 4282070840
27.391508 3.8949685 0.36436701 4279834895
27.404984 3.7254772 0.36424831 4281544997
27.447161 3.5598249 0.36448568 4280228883
3.6218941 0.4249624 0.079274863 4283518533
3.8092847 0.42325091 0.081482306 4286677626
3.6775548 0.38579956 0.079880133 4287664781
2.9929967 0.27696958 0.0716675 4283520075
2.8990016 0.25035328 0.070528179 4284375384
2.4660738 0.18256623 0.065341875 4283717971
2.372371 0.16101418 0.064214423 4287466367
2.3254085 0.14350614 0.063644759 4284833884
1.9618295 0.1090504 0.059312955 4287662732
1.818646 0.089929856 0.05760397 4289702826
1.8021806 0.078037418 0.057402216 4284505177
1.7816414 0.066202782 0.057152987 4287071359
1.736039 0.053853635 0.05660706 4287070068
1.7183436 0.042756815 0.056393437 4282593571
1.6945794 0.031768102 0.056108605 4282524446
1.6777449 0.021159306 0.055906851 4283115818
1.6678441 0.010802015 0.055788171 4283051050
1.6698787 0.00056833052 0.055811904 4283116843
1.6638514 -0.0096417051 0.055740699 4283182379
1.6597613 -0.019802077 0.055693228 4283248172
1.666607 -0.030113881 0.055776305 4283050790
1.6733884 -0.040510438 0.055859379 4283249969
1.6181377 -0.049096398 0.055206642 4286213228
16.711571 -5.8616219 0.24618585 4281544234
16.649868 -5.9549594 0.24586542 4281282090
16.564167 -6.0391974 0.24524829 4281018918
16.49493 -6.1288776 0.24484478 4281149734
16.430828 -6.2200603 0.24451247 4281149477
16.357834 -6.3074498 0.24407336 4280689952
16.258327 -6.3839436 0.24330194 4280689952
16.21792 -6.4832115 0.24329007 4280821024
16.149124 -6.5709176 0.24292216 4280821024
16.093719 -6.6637621 0.24273227 4280886562
16.012905 -6.7456927 0.24222195 4281083430
15.949154 -6.8343663 0.24193713 4281016867
15.866586 -6.9145222 0.24141493 4280951844
15.801006 -7.0016198 0.24111824 4281676848
15.718545 -7.08078 0.24060792 4281611314
15.655709 -7.1683521 0.24035868 4281677620
15.586046 -7.2524662 0.24002638 4280821792
15.518654 -7.3372779 0.23972969 4281082913
15.455314 -7.4237013 0.23949233 4280951076
15.394195 -7.5109396 0.23929057 4280754978
15.331692 -7.5972629 0.23907694 4280689953
15.260671 -7.6790571 0.23875651 4280689953
15.209704 -7.7707305 0.23870903 4280558367
15.135995 -7.8505573 0.23836486 4280426529
15.084002 -7.9414191 0.2383174 4280426529
15.005887 -8.0182714 0.23792575 4280426529
14.941463 -8.1020918 0.23772399 4280426529
14.877451 -8.1859045 0.23753411 4280426783
14.813847 -8.2697268 0.2373561 4280492574
14.746294 -8.3511047 0.2371306 4280492574
14.6731 -8.4289761 0.2368339 4280558367
14.607281 -8.5107946 0.23664401 4280558367
14.539289 -8.5911064 0.23643039 4280492574
14.493163 -8.684269 0.23652533 4280689953
28.469946 12.434527 0.014502179 4280230176
28.51263 12.245399 0.014527312 4280229663
25.898899 10.562439 0.016664293 4280032023
25.941872 10.394773 0.016680351 4278912000
25.985622 10.227709 0.01669501 4279175170
26.051622 10.069513 0.016692217 4280032535
25.912842 9.833539 0.016841618 4280822052
25.871485 9.6366529 0.016917016 4280492574
25.878471 9.4588442 0.016955413 4280689438
24.866705 8.9164028 0.017748492 4280755745
24.883213 8.7503834 0.017776417 4280755999
24.973305 8.6102524 0.017749188 4281611054
24.99251 8.4456501 0.017773625 4281610027
25.091326 8.3078585 0.017738717 4289436825
25.168463 8.162384 0.01771917 4291080868
25.305758 8.0356464 0.017654942 4289568141
25.574219 7.9484949 0.017494371 4280950807
24.958538 7.5894895 0.017978875 4280689183
24.880991 7.399426 0.018068934 4278912774
24.902878 7.2399187 0.018085688 4280952097
24.97473 7.0949073 0.018065443 4280622362
25.063082 6.9540997 0.018032631 4280556569
25.151608 6.8127356 0.01799912 4280688923
25.251911 6.6738696 0.017956534 4280885786
25.366947 6.538023 0.017902778 4280886302
25.45702 6.3949223 0.017866476 4281348136
25.52492 6.2457323 0.017845532 4280953378
25.592916 6.0961814 0.01782389 4281544747
25.69706 5.9546103 0.017775718 4282861122
26.450138 5.9583797 0.017262591 4280493346
26.409027 5.7790809 0.017317744 4280032025
26.840147 5.7010946 0.017035 4280229663
27.022514 5.5667729 0.016929582 4280953384
26.893377 5.3683586 0.017045472 4280953638
27.031918 4.8804278 0.017014056 4278650883
26.911612 4.6883769 0.017120173 4284637786
4.1924405 0.7028988 0.033223279 4287663492
4.1137509 0.66375744 0.033281922 4284703575
26.978529 4.1899252 0.017130645 4280886053
27.187811 3.7112994 0.017034302 4286478971
27.245771 3.5490599 0.017009169 4280294175
27.278942 3.3832936 0.017000793 4282860354
3.7620616 0.44215226 0.033546511 4281082913
3.8422225 0.42771348 0.033492059 4281018403
3.6409042 0.38263831 0.033635177 4283650388
2.9005415 0.26864588 0.034157377 4283846473
2.8921728 0.24997829 0.034164358 4286082407
2.4522495 0.18148661 0.034474328 4284308570
2.3316004 0.15812069 0.034559503 4286148721
2.3574789 0.14536226 0.034542046 4283649092
1.8461289 0.1022104 0.034900188 4284044630
1.8047736 0.088789791 0.03492951 4288518039
1.8052843 0.077714242 0.03492951 4288450957
1.7647561 0.065097168 0.034958135 4284830797
1.7621237 0.054173421 0.034960229 4281869339
1.7074405 0.04197086 0.034998626 4283513648
1.6736721 0.030843109 0.035022363 4282591779
1.6758299 0.020599052 0.035020966 4282723114
1.6699247 0.010274831 0.035025157 4282919977
1.6539563 1.6653212e-05 0.035036325 4283051563
1.6519254 -0.010121001 0.035037722 4283051563
1.6548319 -0.02029149 0.035035629 4283117356
1.6546763 -0.030444963 0.035035629 4282853673
1.6724532 -0.041026082 0.03502306 4283314485
1.5872083 -0.048741098 0.035082404 4281803053
16.730869 -5.8585696 0.023815256 4281675300
16.628681 -5.937583 0.023864124 4281478950
16.583479 -6.0364256 0.023870409 4281741613
16.518938 -6.1279817 0.023890654 4281675820
16.448286 -6.2168522 0.023915088 4281412648
16.382769 -6.3072424 0.023935333 4281215269
16.308378 -6.3937788 0.023961863 4281478441
16.23912 -6.481864 0.023984203 4281478441
16.172173 -6.5704699 0.024004448 4281478441
16.10383 -6.6581159 0.024025392 4281938992
16.030409 -6.7432327 0.024049828 4281478441
15.959311 -6.8288798 0.024072167 4281280293
15.890517 -6.9151058 0.024092413 4281412908
15.820353 -7.0003409 0.024113357 4281084713
15.754302 -7.0870261 0.02413081 4282137662
15.681417 -7.1702542 0.024153151 4282203966
15.609013 -7.2532768 0.024174793 4280690465
15.538893 -7.3369627 0.024194341 4281347366
15.473744 -7.4226556 0.024209701 4280951328
15.413526 -7.5104532 0.024220869 4281215270
15.347433 -7.5951304 0.024236228 4281411879
15.283565 -7.6806278 0.024249494 4281148707
15.213881 -7.7629004 0.024266947 4281082914
15.14021 -7.8427672 0.024287192 4280754719
15.079412 -7.9290037 0.024296965 4280360988
15.003126 -8.0067863 0.024318609 4280295195
14.962509 -8.1034546 0.024311626 4280492574
14.873942 -8.1739216 0.024342343 4280558367
14.801672 -8.2528601 0.024359798 4280887585
14.74031 -8.3376179 0.024368174 4281084964
14.6802 -8.4229307 0.024375156 4280690206
14.610089 -8.5022869 0.024389818 4281018917
14.548172 -8.5861826 0.024397496 4280689952
14.491783 -8.673233 0.02440029 4280953125
27.322466 11.915137 -0.34861434 4280163862
26.113985 11.197947 -0.33061072 4280493084
26.102962 11.0041 -0.32950002 4280624672
24.824072 10.286057 -0.31068274 4280887844
24.872826 10.127891 -0.31048903 4280690202
24.834236 9.9349728 -0.30909419 4283912517
26.213459 10.30058 -0.32739484 4282463016
24.637003 9.3337698 -0.30390233 4280426783
24.668505 9.1730146 -0.30355361 4280689438
24.713991 9.0177088 -0.30341154 4280624162
24.762268 8.8635378 -0.30332115 4280755746
24.836 8.7183876 -0.30359235 4280228632
24.957104 8.5892611 -0.30452225 4280424983
25.304949 8.5356741 -0.30855176 4280294427
24.905872 8.2312088 -0.3024171 4280360220
24.863632 8.0483656 -0.30116433 4281805346
25.058386 7.9418731 -0.30314034 4283383348
25.552643 7.9263072 -0.30917168 4281082650
25.72423 7.8068275 -0.31083772 4280097816
25.771646 7.648839 -0.31083772 4280952357
24.997021 7.2523599 -0.29979533 4280819995
25.009302 7.0898452 -0.29936913 4281675304
25.087025 6.9458623 -0.29983407 4280820509
25.133032 6.7928433 -0.29988575 4280887331
25.184877 6.6413069 -0.30002782 4281282090
25.261953 6.4961133 -0.30051857 4281018403
25.348864 6.3528962 -0.30115142 4281215782
25.449533 6.2124143 -0.30197799 4281018148
25.670067 6.099597 -0.30440602 4280886817
26.278887 6.0741491 -0.31198716 4280689183
26.120892 5.7008944 -0.30893922 4280689185
26.048754 5.5179276 -0.30753148 4280294425
26.080164 5.3575892 -0.30750564 4280163359
26.08901 5.1927791 -0.30719566 4279769114
26.132164 5.0348721 -0.30735067 4280492835
26.183208 4.8782792 -0.30762187 4286611325
4.3337231 0.75285131 -0.020429291 4287335299
4.3254404 0.72410083 -0.020261396 4280953378
26.952316 4.0013938 -0.31555173 4280557340
3.8333809 0.44975379 -0.013468064 4284769118
3.8310993 0.42567253 -0.01340349 4281675569
3.848556 0.40372062 -0.013597216 4283318838
3.7365255 0.36881521 -0.01211198 4284369996
2.7838664 0.25764391 0.00027357787 4285029221
2.8033271 0.24210376 4.1108578e-05 4294703096
2.3214612 0.1575672 0.006330749 4283715916
2.2555165 0.13920459 0.0071960595 4284899929
1.9518204 0.10849601 0.011135159 4282926149
1.8286097 0.090420432 0.012736628 4286940547
1.8091503 0.078337722 0.01299493 4287863183
1.8515648 0.068785854 0.012452496 4283255615
1.8109748 0.056161541 0.012982015 4281477150
1.7563066 0.043692902 0.013692344 4282067491
1.6965572 0.031804729 0.014467249 4282066465
1.6777233 0.02115904 0.014712635 4282526246
1.6488246 0.010683235 0.015087172 4282657575
1.6538585 0.00056658301 0.015022596 4282723368
1.6508312 -0.0095632346 0.015061343 4282854954
1.6467421 -0.01964372 0.015113004 4282854954
1.6555883 -0.029912233 0.014996767 4283313711
1.6713675 -0.040461056 0.014790125 4283182640
16.750982 -5.8754473 -0.19289723 4281806888
16.673191 -5.9633012 -0.19232897 4281676329
16.609983 -6.0559034 -0.19196735 4281610027
16.544394 -6.1472569 -0.19157989 4281807406
16.481113 -6.2390971 -0.19123119 4281873199
16.406136 -6.3260751 -0.1907275 4281740584
16.338158 -6.4152927 -0.19032714 4281477923
16.270634 -6.5042853 -0.18993968 4281675302
16.179478 -6.5832691 -0.18922935 4281543718
16.109217 -6.6701789 -0.18881607 4281477925
16.036655 -6.7556992 -0.18837696 4281740582
15.977438 -6.8464875 -0.18813157 4282070062
15.904881 -6.931211 -0.18770538 4281149734
15.823655 -7.0116568 -0.18716294 4280755748
15.753896 -7.0967064 -0.18678841 4281282351
15.686418 -7.1824131 -0.18645261 4282203705
15.613042 -7.265028 -0.18603933 4281413675
15.554611 -7.35428 -0.1858456 4281675820
15.492067 -7.4413562 -0.18560022 4281345572
15.425447 -7.5261884 -0.18530317 4280952355
15.367331 -7.614924 -0.18513528 4281084196
15.294415 -7.6960378 -0.18476073 4280952610
15.229095 -7.7806392 -0.18450244 4281281575
15.162428 -7.8642678 -0.18423122 4281544234
15.101501 -7.950633 -0.18405041 4280950815
15.03656 -8.0346613 -0.18381794 4280819229
14.945663 -8.1043692 -0.18321092 4281279780
14.888646 -8.1920662 -0.18310761 4281477672
14.818892 -8.2725439 -0.18282348 4281413675
14.763504 -8.3608513 -0.1827589 4281479468
14.697186 -8.4428129 -0.18253934 4281545261
14.631282 -8.5247793 -0.18233271 4281808433
14.57009 -8.6093092 -0.18220355 4281347882
14.510129 -8.6944351 -0.18210024 4281808433
24.386499 9.7615948 -0.62374115 4280360222
24.205912 9.5173912 -0.6172576 4279373843
24.218157 9.3510408 -0.61602622 4281019177
24.374161 9.2398319 -0.61869001 4280954150
24.466938 9.1036987 -0.61967009 4280886564
24.571165 8.9712315 -0.62097687 4280558367
24.755625 8.8668203 -0.62444478 4280426781
24.944437 8.7621403 -0.62803841 4280163611
24.811398 8.374795 -0.62170565 4280819742
24.834793 8.213294 -0.62097687 4280885535
24.823856 8.0410376 -0.61936849 4282596923
24.858435 7.8840356 -0.61899155 4280228632
25.020912 7.7669287 -0.62200719 4280163609
25.130611 6.7976384 -0.61786073 4281018403
25.148649 6.6371884 -0.6172576 4281018403
25.180187 6.4805117 -0.6170314 4280953378
25.202024 6.3215079 -0.61657906 4280756256
4.3920026 0.79036939 -0.075603545 4289506214
3.7937977 0.44455507 -0.059444886 4282268737
3.7487636 0.41596174 -0.058238644 4280951064
3.8009558 0.39817482 -0.059495147 4283253043
3.8699813 0.38143486 -0.061178867 4288385677
2.6871791 0.2312371 -0.031223793 4286544503
2.6686177 0.21314399 -0.030721191 4294572788
2.6170368 0.19284835 -0.029389296 4282926398
2.3039956 0.15543224 -0.021473315 4283780678
2.2839525 0.13999717 -0.020945583 4284701267
1.9154569 0.1054277 -0.011647448 4285096805
1.8192168 0.088878714 -0.0092098266 4287597450
1.8207269 0.077757828 -0.0092349574 4287664264
1.7722189 0.064763464 -0.0080035813 4284438348
1.7595934 0.053484641 -0.007676892 4284568127
1.7239109 0.041790426 -0.006772209 4285684814
1.6961486 0.030686313 -0.006068565 4281077775
1.6883082 0.020177258 -0.0058675259 4282657323
1.6724056 0.0097135389 -0.0054654442 4282657575
1.6664356 -0.00055055605 -0.0053146631 4282789161
1.6594031 -0.01073526 -0.0051387511 4282919977
1.6513091 -0.020821789 -0.0049377121 4282919977
1.662145 -0.031151971 -0.0052141435 4283248171
1.6749147 -0.041664232 -0.0055408329 4283445808
1.6596391 -0.051486112 -0.0051638819 4289305237
16.762232 -5.8761125 -0.40993434 4281873959
16.706091 -5.9717879 -0.4094066 4282005547
16.636259 -6.0622048 -0.40852705 4282005035
16.56876 -6.1530347 -0.40772289 4282070060
16.497967 -6.2422028 -0.40684333 4282003754
16.417379 -6.3271403 -0.40571249 4282069547
16.348469 -6.4160714 -0.40490833 4281806890
16.282797 -6.5058789 -0.40420467 4281281062
16.17034 -6.5762954 -0.40224454 4281215269
16.107513 -6.6662173 -0.4016414 4281346855
16.058016 -6.7614355 -0.40141523 4282070576
15.985901 -6.8468513 -0.40058595 4282531381
15.920674 -6.9348316 -0.39995769 4281347368
15.859542 -7.0242929 -0.3994551 4281150504
15.794265 -7.1116238 -0.39885196 4282926917
15.71488 -7.1921792 -0.39787188 4281149989
15.64054 -7.2745576 -0.3970426 4281413161
15.558551 -7.352879 -0.39601228 4281215269
15.496019 -7.4399867 -0.39553478 4281411878
15.433903 -7.5270414 -0.39508244 4281083681
15.367718 -7.6118402 -0.39452958 4281346337
15.301968 -7.6965594 -0.39400187 4281477923
15.241099 -7.7834864 -0.3936249 4281741095
15.178853 -7.8694968 -0.39322284 4282135853
15.109934 -7.9517775 -0.39264482 4281346855
15.048512 -8.0377483 -0.39229301 4281544232
14.985727 -8.1227875 -0.39191607 4281610025
14.922464 -8.2073593 -0.3915391 4281741613
14.858729 -8.2914629 -0.39116216 4281346855
14.792785 -8.3741064 -0.39073494 4281215782
14.717715 -8.4512768 -0.39005643 4281478954
14.637074 -8.5248232 -0.38922715 4281742126
14.571579 -8.6068487 -0.38885018 4282071605
14.516779 -8.6950693 -0.38879994 4282203191
4.3998671 0.84804744 -0.13144776 4288650140
4.5493999 0.84793812 -0.13696256 4288122765
3.7575667 0.44086653 -0.10526174 4291016886
3.755235 0.41725093 -0.10507416 4287134066
3.7587185 0.39430559 -0.10511168 4287331698
2.6960633 0.23285496 -0.064819738 4284504919
2.5928497 0.20793566 -0.060880579 4291480779
2.595073 0.19209595 -0.0609181 4294309878
2.4396718 0.16557096 -0.055028118 4282925371
2.3748128 0.14654678 -0.052552082 4285556316
1.8234923 0.090168469 -0.031768344 4286676348
1.8319982 0.079322174 -0.032068469 4285755497
1.8114794 0.067305051 -0.031280637 4282860346
1.8258419 0.056619424 -0.031805858 4288188288
1.7392426 0.043272138 -0.02854199 4285358411
1.7035069 0.031933434 -0.027191415 4286804327
1.6836865 0.021232871 -0.026441105 4282264107
1.6777893 0.010864123 -0.026216008 4282657575
1.6758258 0.00056897925 -0.026140973 4282985770
1.6698021 -0.0096775703 -0.025915883 4282985257
1.6667136 -0.019886639 -0.025803335 4283378988
1.6655612 -0.030094741 -0.025765821 4282919464
1.666344 -0.040338282 -0.025803335 4283183916
1.591153 -0.048271202 -0.022989653 4281212182
16.783972 -5.8870192 -0.63097024 4281874476
16.717426 -5.9791236 -0.62976974 4281742894
16.663525 -6.0754256 -0.62909448 4282070062
16.597832 -6.1671143 -0.62796903 4281937961
16.525099 -6.2557497 -0.62658089 4281807658
16.446312 -6.341568 -0.62496775 4281939244
16.376396 -6.4303074 -0.62372971 4281611304
16.300444 -6.5162029 -0.62226659 4281743403
16.224056 -6.601409 -0.62080348 4281874989
16.167551 -6.6943345 -0.62016571 4281874989
16.100386 -6.782547 -0.61911529 4282138161
16.026318 -6.8674331 -0.6178022 4281874989
15.957311 -6.9540615 -0.6167143 4281677101
15.88876 -7.0405068 -0.61566383 4281940020
15.813372 -7.1235003 -0.6143508 4282268987
15.733023 -7.2037535 -0.61285013 4282071859
15.657721 -7.2858191 -0.61157459 4282071087
15.59104 -7.3715048 -0.61067426 4281808687
15.525698 -7.4575114 -0.60984892 4281545513
15.456298 -7.5412412 -0.60887349 4282070060
15.388246 -7.625288 -0.6079731 4282135338
15.319744 -7.7087846 -0.60707271 4282069545
15.261477 -7.7971835 -0.60662252 4282069545
15.192945 -7.8800964 -0.60575968 4282069547
15.121318 -7.9610662 -0.60478425 4281544234
15.065135 -8.0499315 -0.60448414 4281544234
15.00228 -8.1350718 -0.60392141 4281938992
14.930194 -8.2149277 -0.60298347 4281807407
14.865546 -8.2985897 -0.60238326 4281676080
14.807391 -8.3857069 -0.60208315 4281676850
14.745262 -8.4704313 -0.60163295 4281545515
14.679196 -8.5526991 -0.60103267 4281545515
14.612676 -8.6344728 -0.60043246 4281677101
14.542277 -8.7136993 -0.59968209 4281742640
4.6720138 0.93162131 -0.20186251 4288387734
4.6423407 0.89611346 -0.20006 4280096272
3.6363542 0.42733845 -0.14658523 4288717212
3.8910232 0.43316099 -0.15930301 4280887331
2.5217037 0.20222571 -0.089855909 4284570713
2.4721017 0.18296538 -0.087302342 4289834153
2.3864889 0.16187073 -0.082946256 4286411634
2.3365993 0.14406443 -0.080392689 4288121216
2.1669211 0.12017529 -0.071830712 4289371279
1.8065201 0.088876858 -0.053705372 4285360478
1.7910668 0.077092938 -0.052904256 4283913291
1.8124648 0.066888787 -0.053955726 4287663494
1.8128411 0.055766448 -0.053955726 4288321925
1.7402642 0.042800277 -0.050300613 4286478432
1.6705945 0.030784233 -0.046795711 4287594354
1.6657586 0.020468203 -0.046545364 4282328871
1.6508722 0.010144207 -0.045794316 4282657575
1.6529007 1.589302e-05 -0.045894451 4282789161
1.6498736 -0.010109888 -0.04574424 4282723368
1.647783 -0.020210057 -0.045644104 4282985770
1.6426351 -0.030231958 -0.04539375 4283118636
1.6563971 -0.040643495 -0.04609473 4282856496
16.758924 -5.868391 -0.8532232 4282071091
16.728243 -5.9731259 -0.85352361 4281940533
16.637783 -6.0561876 -0.85066962 4281940019
16.585327 -6.1526046 -0.84986854 4281808433
16.517366 -6.2429571 -0.8482663 4281873712
16.443331 -6.3305545 -0.8463636 4281545262
16.353966 -6.4116473 -0.84365982 4281742640
16.299475 -6.50595 -0.84285873 4281742894
16.228712 -6.5934358 -0.84120643 4281874480
16.140877 -6.67343 -0.83865285 4281874480
16.099627 -6.7723432 -0.83865285 4281874480
16.016447 -6.8533235 -0.83639967 4281742640
15.964937 -6.947485 -0.835899 4281742640
15.914701 -7.0420814 -0.83549845 4281676847
15.769176 -7.0937157 -0.82989061 4281808433
15.728077 -7.191586 -0.83004081 4281939503
15.647425 -7.2711234 -0.82803798 4281807915
15.581742 -7.3571906 -0.82688642 4281807917
15.506589 -7.4384069 -0.82523406 4281742124
15.455268 -7.5307894 -0.82493365 4281676331
15.392657 -7.6175065 -0.82403243 4281807404
15.3251 -7.701498 -0.8228808 4281873197
15.262431 -7.7876701 -0.82202959 4281807919
15.19485 -7.8710661 -0.82092804 4281807919
15.13566 -7.9585752 -0.82032722 4281545261
15.084779 -8.0503559 -0.82022709 4281545261
15.015779 -8.1323004 -0.81912553 4281742640
14.941087 -8.2108154 -0.81772357 4281611054
14.872106 -8.2921247 -0.81667209 4281611054
14.807037 -8.3753557 -0.815871 4281611054
14.734576 -8.4541245 -0.81466931 4281611054
14.671204 -8.5378466 -0.81401843 4281611054
14.603918 -8.6190777 -0.81316721 4281611308
14.541328 -8.7028828 -0.81261647 4281545513
4.9868937 1.0878023 -0.28038597 4280689187
4.8473473 0.99522167 -0.27069938 4291216065
3.6628449 0.42911753 -0.19227496 4280558880
2.3968501 0.17703454 -0.1123603 4283254601
2.38395 0.16138293 -0.11149098 4288583316
2.3171539 0.14259493 -0.1072686 4284239429
2.3877439 0.13222609 -0.11161517 4280290317
1.8551841 0.091407031 -0.078395016 4281081361
1.8148268 0.078267731 -0.075849168 4285686103
1.8152729 0.067130685 -0.075849168 4286803046
1.8156506 0.055991113 -0.075849168 4287723115
1.8129666 0.044776153 -0.075662889 4283907376
1.6934592 0.031454448 -0.068211637 4284171324
1.6816442 0.020916797 -0.067466512 4282656805
1.6787467 0.010579852 -0.067280233 4282854184
1.6767839 0.0002791876 -0.067156047 4282985257
1.675756 -0.010003181 -0.067093953 4283051050
1.6726691 -0.020248298 -0.066907667 4283248429
1.6715155 -0.030492786 -0.066845573 4283773237
1.6742902 -0.040822115 -0.06703186 4283182640
1.5792363 -0.048179913 -0.061132953 4279437063
16.656902 -5.8457079 -1.0610907 4281281575
16.584072 -5.9346871 -1.058669 4281149987
16.521093 -6.0267558 -1.0569304 4281084194
16.460415 -6.1193185 -1.0553781 4280755745
16.390823 -6.2081823 -1.0532669 4280558367
16.318899 -6.2957039 -1.0510315 4280689703
16.243732 -6.3814831 -1.0486099 4280689701
16.168131 -6.4665766 -1.0461882 4280953127
16.115206 -6.5603919 -1.0453188 4280887334
16.026703 -6.6392851 -1.0420899 4280821541
15.955311 -6.7247052 -1.0400409 4280953127
15.891733 -6.8130398 -1.0385506 4280624162
15.823098 -6.8988528 -1.03675 4280427294
15.741237 -6.9784174 -1.0340799 4280624673
15.678103 -7.0658503 -1.0327139 4280624673
15.617211 -7.1540184 -1.0315341 4280755746
15.551307 -7.2395988 -1.0300438 4280820769
15.470504 -7.3178124 -1.0275601 4280754719
15.382132 -7.3918486 -1.0245795 4280820769
15.334692 -7.4852171 -1.0244554 4280624160
15.29384 -7.5818276 -1.024828 4280624672
15.29517 -7.6997614 -1.028181 4280164122
15.241418 -7.7902856 -1.0277463 4280361501
15.233195 -7.904346 -1.0305406 4280756259
15.163215 -7.9865026 -1.0290504 4281281575
15.107764 -8.0760984 -1.0286156 4281215782
15.045643 -8.1619825 -1.0277463 4280821024
14.971671 -8.2411518 -1.0260698 4281215527
14.909495 -8.3265343 -1.0252626 4281281320
14.838151 -8.4065447 -1.0238345 4281281320
14.774177 -8.490469 -1.0229651 4281149734
14.702831 -8.5699043 -1.0215991 4281215527
14.612166 -8.6376104 -1.0188669 4281215527
14.560604 -8.7281322 -1.0189911 4281676333
4.7052984 1.0884809 -0.32323641 4286940298
4.803339 1.0801775 -0.33023533 4294110448
5.0095878 1.0943598 -0.34549895 4288847507
5.0171838 1.0638078 -0.3455734 4280755480
3.6856306 0.45543978 -0.23991948 4289967538
3.7834332 0.44400406 -0.24706733 4285493354
2.2933633 0.15510891 -0.13426557 4294768628
2.2853141 0.14047895 -0.13359547 4282858814
1.9675174 0.10866664 -0.10976937 4279632645
1.8575914 0.091100447 -0.10150468 4286473828
1.8112903 0.077662729 -0.098005228 4285223753
1.7858229 0.065578938 -0.096069358 4285421383
1.777221 0.054339893 -0.095399238 4286735699
1.7386415 0.042458393 -0.092495434 4287194453
1.6969936 0.030995714 -0.089368261 4284893759
1.6891747 0.020480324 -0.088772602 4282132260
1.6753076 0.010022079 -0.087730207 4282395430
1.668357 -0.0002614113 -0.087209016 4282592039
1.6653323 -0.010481528 -0.086985648 4282919977
1.6632423 -0.020676231 -0.086836733 4283116586
1.6620872 -0.030863494 -0.086762279 4283379504
1.6658543 -0.041157003 -0.087060101 4283117094
1.622709 -0.050085738 -0.083858468 4280619542
6.3434682 -0.81960112 -0.44020772 4282861644
6.3482022 -0.85984522 -0.4409523 4293716715
6.3408322 -0.8985014 -0.44080338 4293388002
6.3707137 -0.94263929 -0.4434838 4284374873
16.575798 -6.0369034 -1.2797803 4280821289
16.419315 -6.2091765 -1.2733026 4280558367
16.361364 -6.3022809 -1.2717389 4280558367
16.307533 -6.396728 -1.2705476 4280558367
16.234634 -6.483357 -1.2678672 4280492574
16.183462 -6.5783429 -1.2669737 4280360988
16.073023 -6.7644544 -1.2646656 4280295195
16.019299 -6.8578477 -1.2636976 4280295708
15.940343 -6.9400907 -1.2607194 4280295454
15.878308 -7.0292921 -1.2591558 4280229661
15.816691 -7.118403 -1.2576666 4280361247
15.740068 -7.200386 -1.2549862 4280360988
15.659419 -7.2800164 -1.252008 4280295195
15.593716 -7.3661685 -1.2502954 4280295195
15.531141 -7.4535146 -1.2488807 4280295195
15.487804 -7.5499825 -1.2491041 4280229915
15.39382 -7.6214247 -1.245158 4280164122
15.320036 -7.7022991 -1.2429242 4280032536
15.256499 -7.7879963 -1.2415841 4280098329
15.189832 -7.8718271 -1.2400204 4280164122
15.129772 -7.958848 -1.2390525 4280360988
15.068336 -8.0449581 -1.23801 4280360988
15.016059 -8.1358385 -1.2377868 4280360988
14.953622 -8.2210979 -1.2367443 4280360988
14.894187 -8.3078394 -1.2359998 4280295708
14.835987 -8.3951426 -1.2354041 4280295708
14.779872 -8.4835358 -1.2350318 4280295708
14.715472 -8.5670404 -1.2339895 4280361501
14.651466 -8.6505804 -1.2330215 4280229915
14.586988 -8.7336588 -1.2320535 4280295708
14.516928 -8.8131666 -1.2306389 4280493087
5.0171685 1.225046 -0.41156194 4286874243
4.7008591 1.1173196 -0.38262615 4294309367
5.0104694 1.1584499 -0.40965599 4288255896
5.0427556 1.1333623 -0.41190848 4281150514
5.0330687 1.0987881 -0.41043571 4286218115
5.0114517 1.0618985 -0.40792331 4284048486
6.4797359 0.8811633 -0.53111708 4291548117
6.4613099 0.83831286 -0.52903783 4293915895
3.7295141 0.46079385 -0.28923455 4284703086
3.8104391 0.44706443 -0.29607865 4282334798
6.5251536 0.72473502 -0.53336954 4292138958
6.5086703 0.68250316 -0.53155023 4293651676
6.4631643 0.63766605 -0.52721852 4294901227
6.5790524 0.6083557 -0.53700817 4294112740
2.2215393 0.15080173 -0.15607792 4286873475
2.2900391 0.14132929 -0.16196904 4281017641
1.930776 0.10733039 -0.13060749 4283978326
1.9592592 0.096853122 -0.13303325 4278911241
1.8135052 0.078525357 -0.12029804 4283711805
1.815944 0.067469969 -0.12047129 4284303164
1.7974041 0.055743583 -0.11882525 4284171576
1.7907408 0.04454197 -0.11821882 4286209618
1.7182673 0.032206777 -0.11189453 4283119406
1.6746013 0.021120384 -0.10808261 4282396202
1.6846616 0.010907042 -0.10894895 4282460455
1.6846969 0.00056994695 -0.10894895 4282526248
1.6717178 -0.009689115 -0.10782272 4283051050
1.6666459 -0.019885816 -0.10738955 4283378990
1.6694807 -0.030166475 -0.10764945 4283247152
1.674244 -0.040531352 -0.10808261 4283117358
1.6898962 -0.051290769 -0.10946877 4280356886
6.4422212 -0.71332902 -0.52609229 4294770687
6.3694482 -0.74485594 -0.52011454 4294704375
6.3024664 -0.77624804 -0.5146566 4294045415
6.2886925 -0.81375349 -0.51387686 4292136389
6.3082614 -0.85567397 -0.51604271 4292728013
6.2910552 -0.8926844 -0.51500309 4290687149
6.3022132 -0.933752 -0.51647592 4287859082
6.2875037 -0.971035 -0.51569617 4289178024
6.2774925 -1.0089635 -0.51534963 4282139970
6.3193326 -1.0555075 -0.51959473 4281021487
16.513744 -6.2514501 -1.4979538 4280821539
16.46299 -6.3479996 -1.4968276 4280821539
16.094563 -6.8966794 -1.485132 4280558626
16.039156 -6.9897313 -1.483919 4280558626
15.975929 -7.0791345 -1.4820131 4280492833
15.921292 -7.1721172 -1.4809735 4280493087
15.732541 -7.4384108 -1.4757755 4280493087
15.368161 -7.7331491 -1.4585353 4280295708
15.284048 -7.8087163 -1.4549832 4280361501
15.153576 -7.9780502 -1.4516912 4280229915
15.10258 -8.0699415 -1.4515179 4280361501
15.044022 -8.1577082 -1.4506515 4280361501
14.972736 -8.2383366 -1.4485724 4280295708
14.705793 -8.5681953 -1.442508 4280295456
14.571341 -8.7311144 -1.439649 4280295708
14.514939 -8.8188076 -1.4393891 4280295708
4.4141998 1.1656342 -0.41634107 4280951595
4.4501767 1.1459792 -0.41931021 4285624178
4.4156251 1.108225 -0.41505438 4294441462
4.4320073 1.0834759 -0.41604412 4293520101
4.4714842 1.0641023 -0.41940922 4280163858
5.0498714 1.1692051 -0.47780293 4287465337
5.0317111 1.1325108 -0.47522962 4285163611
5.0375934 1.1014028 -0.47513068 4287663233
5.0121355 1.0636476 -0.47186458 4285822311
6.2678185 0.85468298 -0.59142327 4287796620
3.5475457 0.4610768 -0.31806147 4292336351
6.5039763 0.80576003 -0.61408794 4282270259
6.5028687 0.76513851 -0.6134941 4287862664
6.4985399 0.72422963 -0.61260337 4280889638
6.2722836 0.66003448 -0.58954275 4287599760
6.2950292 0.62340283 -0.59142327 4287993750
6.5365314 0.60688657 -0.61517662 4284309332
6.5624719 0.48765025 -0.61676019 4294244085
6.574276 0.44798496 -0.61765093 4293192422
1.9526855 0.1202007 -0.15683539 4284635484
2.0775778 0.11517193 -0.16920695 4290230451
1.9738907 0.097220041 -0.15881485 4293059549
1.8800066 0.080979541 -0.14941247 4279240448
1.8337318 0.067687422 -0.14476076 4285423703
1.7823935 0.054810088 -0.13961419 4286081366
1.7797118 0.043797087 -0.13931727 4286474833
1.7311965 0.031943552 -0.13446763 4283647288
1.6985248 0.020893916 -0.13120154 4281477672
1.6737443 0.010301019 -0.12872723 4281477672
1.6697956 2.8056675e-05 -0.12833133 4281740844
1.6598135 -0.010163723 -0.12734161 4281938223
1.6497698 -0.020233009 -0.12635189 4282004016
1.6486195 -0.030337825 -0.12625292 4282134576
1.6603402 -0.040737446 -0.12744059 4282331955
1.7227216 -0.052802246 -0.13367584 4279503369
6.5792198 -0.23875889 -0.61705709 4290360243
6.5736537 -0.2789557 -0.61666119 4293519841
6.5907035 -0.32019973 -0.61854166 4294572780
6.5945764 -0.36095876 -0.6191355 4292466899
6.6041565 -0.40213916 -0.62032318 4294967283
6.5896506 -0.44185716 -0.6191355 4294967287
6.5868154 -0.48228216 -0.6191355 4294967033
6.5777798 -0.52221757 -0.61854166 4294966517
6.6061788 -0.56527746 -0.62170881 4294834929
6.5976315 -0.60534781 -0.62121391 4293190106
6.5581398 -0.64233309 -0.61765093 4294703345
6.5491261 -0.68204653 -0.61715609 4294242792
6.5497637 -0.72276324 -0.61765093 4281479204
6.4335146 -0.74993914 -0.60646707 4285952868
6.3171825 -0.77571613 -0.59528315 4285623385
4.6552439 -0.60096699 -0.4291085 4293781981
4.6633024 -0.63111818 -0.43029618 4294636525
4.6278129 -0.65526354 -0.42712903 4294965242
4.5961413 -0.67957848 -0.42435783 4294242545
6.1645246 -0.94975811 -0.58261472 4293914348
6.1634941 -0.98835176 -0.58310956 4294373867
16.780287 -5.8758702 -1.7305956 4281677358
16.723301 -5.9713612 -1.7284182 4281479981
16.68541 -6.0735207 -1.7283192 4281348395
16.640366 -6.1730175 -1.7275275 4281282600
16.48628 -6.3470864 -1.7193128 4281151016
16.252338 -6.6030326 -1.7070402 4280822052
16.182089 -6.6904664 -1.703873 4280887845
16.113214 -6.7780585 -1.7009039 4280887845
16.053024 -6.8689723 -1.6989244 4280822052
