# .PCD v0.7 - Point Cloud Data file format
VERSION 0.7
FIELDS x y z rgb
SIZE 4 4 4 4
TYPE F F F U
COUNT 1 1 1 1
WIDTH 1102
HEIGHT 1
VIEWPOINT 0 0 0 1 0 0 0
POINTS 1102
DATA ascii
4.9727287 1.1183122 -0.72048521 4291346370
5.0017209 1.0926393 -0.7238729 4290296243
5.0305848 1.0666525 -0.72726065 4289836455
5.8110876 1.1951176 -0.84494656 4291215027
5.8251014 1.1607933 -0.8459776 4292987580
5.8544502 1.1293427 -0.84936535 4292393381
5.8262677 1.0868624 -0.84406281 4292392605
5.8415871 1.0526732 -0.84538847 4293511349
5.8625531 1.0193545 -0.84759784 4284365358
5.8735743 0.98418164 -0.84833431 4283706413
5.8726673 0.94701988 -0.84730327 4282787882
5.8734803 0.91020977 -0.8465668 4284239952
5.6744885 0.84370995 -0.81578285 4287335559
3.5028331 0.49841589 -0.48835376 4294441200
5.9137402 0.80528516 -0.85024905 4289703855
5.9244552 0.76974976 -0.85113281 4284970109
5.9290662 0.73338348 -0.85113281 4283327601
5.709487 0.67063606 -0.81755036 4289051064
5.6928511 0.63328999 -0.81445724 4289971914
5.9592671 0.62598795 -0.85378408 4292668141
5.9206719 0.58521891 -0.84745055 4283915102
5.9231663 0.54878795 -0.84730327 4294506485
5.9678087 0.51602048 -0.85348946 4294704632
5.9117088 0.47463191 -0.844652 4294507506
5.9273324 0.43930227 -0.8465668 4293457130
6.0197158 0.40904406 -0.85997033 4294442491
5.9865732 0.36989722 -0.85466784 4280558620
5.9749041 0.33238548 -0.85260576 4282066716
5.9639888 0.29507998 -0.85069096 4284170822
1.8065318 0.077455625 -0.23074085 4282801258
1.8069731 0.066369496 -0.23074085 4284440918
1.8221756 0.055744056 -0.23295024 4285424463
1.7967749 0.043917213 -0.22912064 4286146895
1.7356977 0.03172937 -0.21998858 4285424463
1.681464 0.02038149 -0.21188754 4281083943
1.701339 0.010196005 -0.21483338 4281149734
1.6875222 -0.00025095826 -0.2127713 4281675567
1.6845216 -0.010588806 -0.21232942 4282004532
1.6676115 -0.020727469 -0.20982546 4282399290
1.6625084 -0.030871019 -0.209089 4282005043
1.6662428 -0.041166328 -0.20967817 4282005043
5.6342092 -0.20561527 -0.8010537 4294638320
5.7939186 -0.24701698 -0.82506222 4288191895
5.7745113 -0.28169927 -0.822411 4293521128
5.7726746 -0.31712571 -0.822411 4294901757
5.7538362 -0.35151827 -0.81990701 4292533465
5.7979541 -0.38992652 -0.82682973 4293388261
5.7964387 -0.42556697 -0.82697701 4294769914
5.7749848 -0.459638 -0.82417846 4290954425
5.7759981 -0.49540129 -0.82476765 4291020467
5.7787595 -0.53137505 -0.82565141 4293322195
5.7842493 -0.56769049 -0.82697701 4284243287
5.7727866 -0.60235173 -0.82579869 4284639336
5.7581677 -0.63656825 -0.82417846 4286743162
4.7540278 -0.55531228 -0.6742357 4285293145
4.7269697 -0.58157903 -0.67070067 4284701769
4.7007499 -0.60766131 -0.66731298 4284505168
4.6626272 -0.63185298 -0.66215777 4284768341
4.6371174 -0.65740132 -0.65891737 4284701518
4.6007066 -0.68107015 -0.65405673 4285227856
4.5641813 -0.70431703 -0.64919609 4284965195
4.5324287 -0.72792447 -0.64507192 4285623899
4.5190964 -0.75425798 -0.64374632 4288387215
4.50951 -0.78112954 -0.64300984 4280820260
4.7003202 -0.84386778 -0.67261547 4287335045
5.7307467 -1.064939 -0.82948095 4294506742
5.7299318 -1.1012011 -0.8303647 4294967288
5.7153058 -1.134799 -0.82918638 4294966766
5.739243 -1.1761943 -0.83389974 4282860603
5.7222404 -1.2093444 -0.83242679 4291282626
5.7437072 -1.2507403 -0.83684552 4283913558
5.6693273 -1.2710428 -0.82668245 4294769657
5.7192516 -1.3191314 -0.83551991 4294967291
5.7120123 -1.3544272 -0.83566719 4294967291
5.7093606 -1.3908534 -0.83655095 4294835961
5.7141528 -1.4292165 -0.83861303 4294835707
5.706234 -1.4644966 -0.83876032 4293125602
3.7482028 1.112075 -0.59170413 4294901759
3.7691786 1.0931791 -0.59409201 4292598745
4.0959215 1.160712 -0.64773971 4286214254
4.1981163 1.1618831 -0.66365892 4282595901
4.1108098 1.1106188 -0.64789891 4287269263
4.1194563 1.0858777 -0.64821732 4294769918
4.795155 1.1388431 -0.75599033 4287073673
4.856883 1.1220616 -0.76506424 4289899946
5.0197268 1.1272708 -0.79085332 4287263862
5.0265484 1.096449 -0.79085332 4292132794
5.5875826 1.1829158 -0.88222957 4292460716
5.6440573 1.1587311 -0.89034837 4293246888
5.6820464 1.1302392 -0.89544249 4293444772
5.6946907 1.0964731 -0.89639765 4294760630
5.6838408 1.058259 -0.89353222 4294826421
5.6756525 1.0207434 -0.89114434 4294498222
5.6808357 0.98573029 -0.89098513 4294629547
5.6828828 0.95020384 -0.89034837 4294699708
5.6798334 0.91390556 -0.8889156 4284833346
5.6599665 0.87511712 -0.88477665 4289374615
3.4601312 0.51342368 -0.52532107 4292269521
5.6477981 0.80240232 -0.8811152 4292858536
5.6907682 0.77291214 -0.88732368 4293909417
5.6954031 0.73797971 -0.88732368 4283976754
5.6910062 0.70193243 -0.88589096 4281674009
5.6157813 0.65770334 -0.87299639 4280162831
5.6148047 0.62268943 -0.87220043 4294309591
5.6882343 0.59551972 -0.88350308 4289505423
5.6888337 0.56031609 -0.88302553 4294831831
5.6892152 0.52512747 -0.88254791 4294698432
5.654953 0.4869929 -0.87649864 4294172853
5.6381521 0.45071357 -0.8733148 4292924840
5.6654258 0.41792411 -0.8772946 4294964433
5.6521239 0.38208953 -0.87474751 4293648327
5.6730847 0.34855056 -0.87777215 4281474063
5.6731448 0.31362578 -0.8774538 4282723365
5.670032 0.27856821 -0.87665784 4283448369
5.5986447 0.24064016 -0.86487764 4282460957
1.8115453 0.066993631 -0.2535803 4283845196
1.8533671 0.057146132 -0.26026636 4284175176
1.8240743 0.045048103 -0.25549063 4285029705
1.7305436 0.032134742 -0.2403674 4282793773
1.7099776 0.021262662 -0.23702435 4280886556
1.69428 0.010674148 -0.2344773 4281411879
1.6972755 0.00027784641 -0.23495488 4281872430
1.691322 -0.010099713 -0.23399971 4282135602
1.6843178 -0.020392019 -0.23288538 4282332981
1.6772516 -0.030598762 -0.23177104 4282201395
1.679006 -0.040938191 -0.23208942 4282201911
5.6680918 -0.20875047 -0.87586188 4286545005
5.6469774 -0.24267618 -0.87267804 4292137406
5.6443958 -0.27727234 -0.87251884 4294834921
5.6218877 -0.31075478 -0.86917579 4290558124
5.6119919 -0.34475937 -0.86790228 4294768879
5.6196213 -0.37985387 -0.8694942 4293649618
5.6467218 -0.41650882 -0.87426996 4294636515
5.6499639 -0.451621 -0.87522513 4293978331
5.6510215 -0.48661909 -0.87586188 4294110420
5.6459632 -0.52110237 -0.87554348 4292992701
5.6357822 -0.5550577 -0.87442917 4290755480
5.5851398 -0.58469057 -0.86678791 4291281319
4.8317909 -0.5357644 -0.74516523 4292663752
4.8117442 -0.56344831 -0.742459 4282532143
4.7121739 -0.58111244 -0.72685814 4286083171
4.6918759 -0.60785717 -0.72415191 4284897866
4.6665363 -0.63371015 -0.72064966 4285226055
4.636169 -0.65858042 -0.71635151 4285554761
4.6076274 -0.68339199 -0.71237171 4286280022
4.5848103 -0.70878363 -0.70934707 4287069540
4.5618553 -0.73392111 -0.70632237 4286740323
4.5485029 -0.76043248 -0.70488966 4284831813
4.5515327 -0.7896781 -0.70616323 4280426507
4.7078958 -0.84660941 -0.73258907 4284308817
5.611053 -1.0446806 -0.88159281 4293518794
5.6035676 -1.0789028 -0.88143361 4294310109
5.5987792 -1.1136508 -0.88175195 4294964716
5.5957084 -1.1487777 -0.88238877 4294635758
5.5866232 -1.1826816 -0.88207036 4291807942
5.2030845 -1.1348605 -0.81998551 4282925117
5.5948067 -1.2563419 -0.88589096 4294241513
5.5812216 -1.2893138 -0.8849358 4292464849
5.5780077 -1.324676 -0.88573176 4293058785
5.5275745 -1.3485783 -0.87872732 4294901503
5.5057888 -1.3791102 -0.87649864 4294638332
5.5173025 -1.4180293 -0.87984169 4294572535
5.473176 -1.442544 -0.87395155 4291743438
4.1558208 -1.17746 -0.65776885 4294769916
4.1390367 -1.2001871 -0.65617692 4294835701
4.1457915 -1.2297739 -0.65856481 4294439144
3.9709311 -1.257863 -0.63293487 4293521640
3.6621869 1.1111743 -0.62488431 4294309363
3.6377678 1.0794237 -0.61924469 4289967017
4.1000295 1.1621896 -0.70025009 4284309591
4.1317701 1.143852 -0.70469344 4293059306
4.1463194 1.1205369 -0.70606059 4289771970
4.4154792 1.1353968 -0.7518611 4288194214
4.6645327 1.138664 -0.79390186 4293060838
5.4325137 1.2910651 -0.9295944 4293253066
5.0506048 1.1675231 -0.86021006 4284039227
5.0470996 1.1341326 -0.85833019 4290029213
5.0761027 1.1079806 -0.86226082 4282990902
5.5830436 1.1829084 -0.95095658 4282127121
5.6201143 1.1547829 -0.95625436 4289034868
5.637723 1.122395 -0.95813423 4290877061
5.6416016 1.0872216 -0.95762157 4289890418
5.6394491 1.0509585 -0.95608348 4288838759
5.6487007 1.0168601 -0.9565962 4287720537
5.6519213 0.98167473 -0.95608348 4286995532
5.6364603 0.94339406 -0.95232373 4287987059
5.6343608 0.90753657 -0.95095658 4287989888
5.6349554 0.87219322 -0.95010209 4283514166
5.6343532 0.83673173 -0.94907671 4281145100
5.6296272 0.80075473 -0.94736773 4282199058
5.6168613 0.76380354 -0.94429159 4282984984
5.6106944 0.7279281 -0.94241172 4283180573
5.6160336 0.69360876 -0.94258261 4284300082
5.619205 0.65902138 -0.94241172 4281602576
5.6192255 0.62409437 -0.94172812 4284041530
5.6160898 0.58888298 -0.94053185 4281541396
5.6088119 0.55334598 -0.93865198 4282920228
5.6160259 0.51928419 -0.93933553 4283247653
5.6083088 0.48388121 -0.93745565 4283839788
5.6249218 0.45056438 -0.93984824 4284170285
5.6010509 0.4140752 -0.93523401 4286668109
5.5995536 0.37943277 -0.9345504 4284234288
5.6135774 0.34579676 -0.93660116 4283841328
5.6077232 0.31090802 -0.93523401 4283973169
5.5927963 0.27566573 -0.93232876 4283841579
1.867579 0.079788841 -0.28531116 4280357137
1.8424335 0.06737569 -0.28086782 4281544492
1.8162223 0.055243563 -0.27625358 4281608745
1.8273618 0.044368394 -0.27813348 4282003503
1.7576565 0.031841487 -0.26599976 4280885535
1.7193955 0.02057031 -0.25933474 4281083430
1.7165335 0.010000676 -0.25882205 4281346086
1.7106509 -0.00053415733 -0.25779667 4281872430
1.7027333 -0.010985063 -0.25642949 4282135602
1.6908112 -0.021291923 -0.25437874 4282530360
1.6876935 -0.031612832 -0.25386605 4282267704
1.6854976 -0.041920099 -0.25352424 4281545523
5.620441 -0.20609516 -0.93660116 4286673014
5.6190701 -0.24057765 -0.93660116 4283185746
5.6096153 -0.27466723 -0.93523401 4293977839
5.608808 -0.30913603 -0.9354049 4280295195
5.5940208 -0.34276453 -0.93318325 4285887600
5.5947618 -0.37728062 -0.93369591 4282462767
5.6562133 -0.41628999 -0.94480425 4283842108
5.6633744 -0.45176947 -0.94651324 4283775288
5.6604958 -0.48651078 -0.94651324 4284827974
5.6681972 -0.52222586 -0.94839311 4283251254
5.6629243 -0.55680305 -0.94805133 4282724907
5.6319628 -0.58867729 -0.94326621 4283383097
4.9006052 -0.54280275 -0.81628942 4284106561
4.857058 -0.56817812 -0.8092826 4283187779
4.80654 -0.5921979 -0.80107957 4282859574
4.7959757 -0.62079537 -0.79988325 4288649350
4.6329274 -0.62865633 -0.77202702 4286740321
4.6280069 -0.65693343 -0.77185607 4286673503
4.6014719 -0.68200111 -0.76792544 4287922796
4.585515 -0.7084201 -0.76587468 4288646778
4.5664892 -0.73420054 -0.76331121 4287001702
4.6036882 -0.76917762 -0.7706598 4282528041
4.5872321 -0.79539382 -0.76860905 4282857272
5.6548591 -1.0160145 -0.95762157 4284635225
5.6804867 -1.0566325 -0.96326113 4281149987
5.6690578 -1.0905378 -0.96240664 4279636750
5.669991 -1.1268369 -0.96377385 4280490777
5.6272569 -1.1542878 -0.95745069 4279831306
5.6094646 -1.1865535 -0.95557082 4279634695
5.5712705 -1.2142425 -0.95010209 4281541922
5.0493507 -1.1331004 -0.85867196 4281278491
5.3389707 -1.232479 -0.91147929 4291076771
5.5009999 -1.3054478 -0.94172812 4282985257
5.4555516 -1.3300825 -0.93506312 4291542197
5.3765545 -1.3458424 -0.92241669 4294309355
5.364378 -1.3778273 -0.92173308 4294505713
5.3720207 -1.4149796 -0.92463839 4294110959
4.090415 -1.1045779 -0.69597763 4284900206
4.0598183 -1.1230946 -0.69170523 4285622128
4.0348377 -1.142887 -0.68845814 4287266430
4.0466771 -1.1731043 -0.69187611 4285752666
4.0677433 -1.2063082 -0.69700301 4281676323
4.0536642 -1.2292452 -0.69580674 4282336068
4.0563989 -1.2573007 -0.69768661 4292601316
3.5672576 1.106894 -0.65649825 4294573050
3.5909154 1.0901235 -0.65979391 4288389787
3.9641562 1.1768739 -0.73101729 4287667091
4.162024 1.2078589 -0.76800215 4289968819
4.1154447 1.1670159 -0.75756586 4285623658
4.1386347 1.1462013 -0.76067841 4288716180
4.1693158 1.1271977 -0.76525575 4293521894
4.1742525 1.1010928 -0.7648896 4290036152
4.5498214 1.1405965 -0.83446515 4294834921
5.3245993 1.3000871 -0.98167235 4294961366
5.1832666 1.2319396 -0.95310968 4290946210
5.0403466 1.1653552 -0.92436403 4289369751
5.2354026 1.1766446 -0.96025038 4290157198
5.1570401 1.125843 -0.94395506 4291671453
5.506237 1.1667014 -1.0091364 4282261775
5.5258107 1.1354655 -1.0115166 4282460193
5.5317097 1.1013465 -1.0113335 4281603606
5.5567045 1.0709175 -1.0148122 4282987579
5.5960312 1.0429237 -1.0210375 4281280809
5.6932745 1.0249344 -1.0382483 4280624423
5.6965508 0.9894774 -1.037699 4282273631
5.71415 0.95645213 -1.0398961 4288194993
5.714088 0.92043519 -1.0387975 4279246644
5.7157416 0.88475555 -1.0380652 4281160303
5.7103662 0.8480798 -1.0360512 4280899690
5.7105961 0.8123337 -1.0351356 4281356656
5.711576 0.77674925 -1.0344033 4281291886
5.7094107 0.74080402 -1.0331216 4280833133
5.707994 0.70503515 -1.0320231 4280833388
5.7034245 0.66896814 -1.0303752 4281357410
5.700583 0.63320071 -1.0290936 4285762720
5.701427 0.59790331 -1.0285443 4281423211
5.7010751 0.56252289 -1.0278119 4280702573
5.696588 0.52680749 -1.0263472 4281094757
5.6957955 0.49150613 -1.0256149 4287469722
5.6918445 0.45599902 -1.0243331 4283709997
5.6984568 0.42135566 -1.0250655 4283315756
5.7048583 0.38664827 -1.0257978 4282663743
5.7012362 0.35127428 -1.0246993 4282925887
1.871153 0.10402794 -0.30990225 4283120948
1.8668467 0.092303067 -0.30898678 4281670430
1.8546094 0.080296427 -0.30660656 4282920495
1.8314891 0.06804423 -0.30221233 4285291596
1.8122195 0.056199871 -0.29855046 4287661942
1.7909086 0.044546105 -0.2945224 4289899419
1.7508481 0.032810144 -0.28701556 4285754721
1.7264411 0.021762241 -0.28243822 4281281062
1.7157283 0.011101055 -0.28042421 4281346086
1.7108486 0.00057279965 -0.27950874 4281609258
1.699023 -0.0098536825 -0.27731159 4282004016
1.6881171 -0.020146979 -0.27529758 4282267188
1.6850131 -0.030450728 -0.2747483 4282004786
1.6779149 -0.040621065 -0.27346665 4281676078
1.6884431 -0.051246334 -0.27548066 4282005043
5.7131262 -0.20941642 -1.0256149 4281547851
5.6852145 -0.2433307 -1.0206712 4283850858
5.6502285 -0.27657348 -1.0144461 4287074706
5.6641316 -0.31210393 -1.0173756 4287073673
5.6679969 -0.34721357 -1.0184741 4282994250
5.639277 -0.38019788 -1.0135306 4286613896
5.6838984 -0.41825894 -1.0223191 4287073677
5.6851454 -0.45343974 -1.0230515 4286942091
5.6812768 -0.48823035 -1.0228684 4287402642
5.6732793 -0.52262962 -1.021953 4287863191
5.6748576 -0.55791157 -1.0228684 4287994518
5.6771936 -0.59333491 -1.0239669 4287139216
5.6851721 -0.62945729 -1.0261641 4279048485
5.6831555 -0.66455758 -1.0265303 4281353819
5.680922 -0.69965672 -1.0268965 4284639085
4.7220373 -0.61093205 -0.84764785 4283188543
4.7250185 -0.64081979 -0.84892952 4281936672
4.7083445 -0.66800368 -0.84654927 4280622362
4.7012396 -0.69644856 -0.84600002 4281412132
4.6755033 -0.72197926 -0.84197193 4281937963
4.6486611 -0.74706447 -0.83776081 4283583817
4.6148996 -0.77071345 -0.832268 4287465862
4.5141888 -0.7823869 -0.81414175 4290952891
4.5093031 -0.81007063 -0.81414175 4293056719
4.5032811 -0.83754414 -0.81395864 4287988086
4.4739227 -0.86051583 -0.80938131 4286080350
4.4762721 -0.88948458 -0.81084603 4286016098
4.4543586 -0.91357446 -0.80773348 4293979363
4.4419365 -0.93946421 -0.8064518 4294505968
4.4139962 -0.96188551 -0.80224067 4294506483
5.47084 -1.2274956 -1.0051084 4294966265
5.4469213 -1.2572809 -1.0019957 4294570997
5.2095399 -1.2361875 -0.95805323 4283777604
4.9439778 -1.2052429 -0.90861797 4280288773
4.9565167 -1.2405701 -0.91246295 4281342742
4.969759 -1.2763408 -0.91649103 4283975234
4.9846497 -1.3128216 -0.92088526 4284765520
5.2194715 -1.4089903 -0.96775717 4285228373
4.0765548 -1.1272552 -0.74859428 4285228377
4.0761824 -1.1541226 -0.7498759 4283845948
4.0718565 -1.1799331 -0.75042522 4281281314
4.1267471 -1.2233419 -0.76250935 4294113013
3.3809862 1.0954189 -0.66569608 4294245112
3.3960578 1.0773252 -0.66744727 4294507257
4.0894208 1.2151405 -0.80695879 4293325550
4.0854974 1.186739 -0.8046239 4289968054
4.1106291 1.1667421 -0.80832088 4281940281
4.1347241 1.146219 -0.81182325 4290624448
4.1217971 1.1154411 -0.80773711 4287794579
4.1522717 1.0963961 -0.81260157 4287332997
4.1665196 1.0728564 -0.81415814 4293453027
5.286068 1.3269256 -1.041813 4285949267
5.1807308 1.2667177 -1.0186583 4283908142
5.2590151 1.2517277 -1.033057 4283448622
5.0487294 1.1689404 -0.98869348 4290622110
5.2223072 1.1754547 -1.0225499 4289699967
5.2830806 1.1551338 -1.0334462 4294961611
5.3543539 1.1363533 -1.0464828 4293972138
5.3554616 1.1022905 -1.0453154 4293711814
5.374629 1.071906 -1.0478449 4292333003
5.5544558 1.0724144 -1.0828687 4292464867
5.6168542 1.0487664 -1.0941541 4280297281
5.6453848 1.0182916 -1.0986294 4280565337
5.660224 0.98514843 -1.1003805 4281879902
5.6932473 0.95494831 -1.1058288 4282603362
5.7232075 0.9239102 -1.1106931 4281226086
5.7132611 0.88636667 -1.1075799 4280506737
5.7166514 0.85100472 -1.1071907 4280637296
5.7169104 0.81521869 -1.1062179 4280637298
5.7159734 0.77932882 -1.1050504 4280506487
5.7187028 0.7439881 -1.1046612 4280506487
5.7192664 0.70840168 -1.1038829 4281031284
5.7196083 0.67283636 -1.1031046 4282540403
5.7226548 0.63762003 -1.10291 4280896608
5.7206063 0.60187751 -1.1017426 4280507252
5.7202868 0.56637782 -1.1009643 4280505971
5.7168183 0.53063214 -1.0996022 4279712597
5.7170348 0.49528983 -1.0990186 4288389284
5.6994343 0.4585453 -1.0949324 4289701533
5.6992059 0.423347 -1.0943487 4279570955
5.696804 0.38803506 -1.0933758 4284370762
5.701035 0.35319453 -1.093765 4282661432
1.8189816 0.10069011 -0.32207358 4283905573
1.8195655 0.089527145 -0.32207358 4283711276
1.808321 0.077846944 -0.31973866 4283119655
1.8028835 0.066528969 -0.31857118 4284828993
1.7846299 0.054880343 -0.31487423 4286275920
1.7976807 0.044251136 -0.31740373 4285947979
1.7292688 0.031906676 -0.30378336 4284108092
1.7127584 0.021078847 -0.30047554 4281477923
1.6932381 0.010434668 -0.29658401 4281346086
1.6893469 4.2132335e-05 -0.29580569 4281609258
1.6893151 -0.010323505 -0.29580569 4281938223
1.6833352 -0.020620769 -0.29463825 4282267188
1.6753311 -0.030810341 -0.29308164 4281741614
1.6800137 -0.041206229 -0.29405451 4281544492
5.7268267 -0.20797789 -1.0974619 4282598738
5.7038827 -0.24220207 -1.0931813 4284770938
5.6523223 -0.27477723 -1.0832578 4286547596
5.6270237 -0.3081716 -1.078588 4286810242
5.6730018 -0.34560534 -1.0881222 4284440924
5.6012869 -0.37576073 -1.0743073 4287862164
5.6800733 -0.41605324 -1.0904572 4287402127
5.682303 -0.45128492 -1.0914301 4287533713
5.6852908 -0.48664311 -1.0925975 4287665299
5.6861043 -0.52187604 -1.0933758 4287665299
5.6847482 -0.5569464 -1.093765 4287336334
5.6792722 -0.59161401 -1.0933758 4287138439
5.6716356 -0.62602061 -1.0925975 4278850841
5.7037368 -0.66500485 -1.0997969 4280564295
4.7610016 -0.58491701 -0.91222483 4279046426
4.728138 -0.61035866 -0.90638757 4285755766
4.7243032 -0.63935846 -0.90638757 4281216566
5.7090082 -0.80807573 -1.1044667 4281155665
5.7000613 -0.84251744 -1.1036884 4281355603
5.6947842 -0.87747657 -1.1036884 4285103226
4.7246242 -0.75789833 -0.90988994 4282730048
4.7208524 -0.78703493 -0.91008449 4285097056
4.4984565 -0.77841204 -0.86630476 4284505949
4.4694576 -0.80167627 -0.8614403 4285097819
4.4876013 -0.8333776 -0.86611015 4287595900
4.5074496 -0.86570102 -0.87116915 4283252792
4.4876204 -0.89048189 -0.86825049 4284964177
4.4599695 -0.91347957 -0.86377525 4283781446
4.4110909 -0.93171746 -0.85501927 4284439627
4.3851624 -0.95439065 -0.85093319 4285163350
4.3667798 -0.97849458 -0.84840369 4284965971
4.3511353 -1.0030692 -0.8464579 4284176457
4.2981277 -1.0186766 -0.83692366 4282662195
4.286078 -1.0436394 -0.83575618 4281213211
4.2767382 -1.0692058 -0.83517247 4285030232
4.2529941 -1.0910444 -0.83167005 4291938758
4.2196565 -1.1101391 -0.82622194 4290753712
4.1824574 -1.1278454 -0.81999546 4281543708
4.1537104 -1.1474856 -0.81552023 4283187501
4.1305451 -1.1684164 -0.81221241 4283449141
4.108222 -1.1893787 -0.80909914 4285889140
3.2537451 1.0756925 -0.68328321 4293717741
3.2882118 1.0647475 -0.68947446 4291151810
4.047833 1.2017074 -0.85106605 4286218366
4.0899005 1.1869348 -0.85870194 4284507235
4.0914578 1.1602162 -0.85746366 4285099624
4.1465931 1.1484046 -0.86798882 4287205000
4.1696196 1.1272796 -0.87149715 4291677383
4.19065 1.1054164 -0.87459278 4289769387
5.2217588 1.343092 -1.0976841 4285356891
5.1890893 1.300799 -1.08881 4284499779
5.1903195 1.2673107 -1.0873654 4284564542
5.1894298 1.2334038 -1.085508 4282194452
5.0853591 1.1757588 -1.0613621 4292198062
5.2070389 1.1702722 -1.0861272 4294367925
5.2303734 1.141847 -1.0896355 4294958255
5.2324948 1.1087188 -1.0886036 4294107086
5.2535758 1.0795451 -1.0916992 4294769655
5.5000138 1.0950383 -1.143293 4284966507
5.5277672 1.0653424 -1.1478332 4281747289
5.556324 1.0355264 -1.1525799 4281160301
5.5808702 1.0047066 -1.1565011 4280171339
5.5984988 0.9724527 -1.1589775 4281089620
5.6333117 0.9429267 -1.1651688 4280566111
5.6505842 0.91021013 -1.1676452 4280896877
5.6734681 0.87821472 -1.17136 4280701033
5.6990747 0.84640372 -1.1756939 4280701551
5.7264423 0.81458682 -1.1804405 4280636528
5.7284236 0.77903932 -1.1798214 4280309875
5.7350368 0.74412733 -1.1802341 4281427322
5.7404656 0.70904374 -1.1804405 4281555813
5.7456803 0.67392147 -1.1806469 4280636259
5.7448444 0.63811415 -1.179615 4280637806
5.7389202 0.60183263 -1.1775513 4280506737
5.739584 0.56631988 -1.1769321 4280571501
5.7517195 0.53190213 -1.1787895 4278856510
5.7461014 0.49584371 -1.1769321 4279964949
5.7012434 0.45675138 -1.1668198 4284303680
1.8162957 0.13456446 -0.34462184 4287329632
1.8161111 0.12335125 -0.34441549 4283711794
1.8295298 0.11298688 -0.34709835 4283448892
1.8340966 0.10197543 -0.34792385 4282923314
1.8366425 0.090815924 -0.34833661 4283841071
1.8391203 0.079629034 -0.34874934 4284301873
1.7955729 0.066717438 -0.33946246 4283777067
1.7773663 0.055126455 -0.33554134 4284499509
1.7796274 0.044267941 -0.3359541 4284894772
1.7338852 0.032496009 -0.32625449 4285620043
1.7115488 0.021577852 -0.32150784 4281148193
1.7087135 0.011057248 -0.32088873 4281083432
1.7116847 0.00057289086 -0.32150784 4281543465
1.7155697 -0.0099534085 -0.32233334 4282201395
1.7115629 -0.020432157 -0.32150784 4282004015
1.7065138 -0.030844206 -0.32047597 4281872429
1.7102051 -0.041410219 -0.32130149 4281675821
1.724589 -0.05235168 -0.32439709 4281674799
5.7313166 -0.21008442 -1.1701218 4282071354
5.7211218 -0.24487001 -1.1682644 4286019960
5.6843286 -0.27824497 -1.1608349 4287007369
5.7059622 -0.31441173 -1.1657879 4286942089
5.5964952 -0.34282857 -1.1430867 4287534228
5.6430988 -0.38045588 -1.1534054 4285823095
5.6611505 -0.41658345 -1.1577393 4287533713
5.6936011 -0.45411474 -1.1651688 4287402127
5.6936321 -0.48929304 -1.1657879 4287402127
5.6905227 -0.52421927 -1.1657879 4287533713
5.694016 -0.55979639 -1.1672325 4287731092
5.669064 -0.59248465 -1.1626923 4285033831
5.7003326 -0.63113701 -1.1701218 4279311657
5.714818 -0.66826218 -1.1740429 4280893536
5.721292 -0.70463139 -1.176313 4279909463
5.7168612 -0.73972327 -1.176313 4280041568
5.717062 -0.77544528 -1.1773449 4286219408
4.7163115 -0.66913462 -0.96519136 4286219146
5.7322812 -0.84927416 -1.1827106 4280237384
5.7221274 -0.8836838 -1.1816788 4280957246
5.6905136 -0.9145835 -1.1761067 4283648579
4.7853279 -0.79919034 -0.98376513 4284238909
4.7861185 -0.82954055 -0.98500335 4283844921
4.7828646 -0.85923827 -0.98541617 4281610035
5.6211429 -1.0455475 -1.166407 4281418326
5.5915608 -1.0755811 -1.161454 4281746762
4.8075051 -0.95533335 -0.99429023 4284306519
4.781424 -0.98068357 -0.98995638 4282595889
4.7887187 -1.012839 -0.99284565 4293385681
5.098856 -1.1111895 -1.0611558 4283844928
5.0279756 -1.1280979 -1.0473287 4281278493
5.0362134 -1.1624498 -1.0506307 4283582534
5.0261302 -1.1926516 -1.0500115 4290622647
4.3418794 -1.0584148 -0.90307254 4284305749
4.294488 -1.0748174 -0.89419842 4282989368
4.2707539 -1.0967653 -0.89048368 4283909433
4.2336659 -1.1149726 -0.88387966 4283251505
4.2135196 -1.1373578 -0.88099045 4283056434
4.1630812 -1.15119 -0.87149715 4284766282
4.1465249 -1.1740462 -0.8694334 4282397483
4.8036709 -1.3920687 -1.0153406 4294636790
5.0708394 -1.5033029 -1.0760148 4292730846
3.1758893 1.0926591 -0.71041948 4287138957
3.200103 1.0790828 -0.71456099 4294309626
3.2038841 1.0585076 -0.71390706 4288257951
4.1085544 1.1918939 -0.91574997 4284243545
4.0941958 1.1605344 -0.91073656 4286349691
4.1144066 1.1390401 -0.9137882 4284704098
4.1637125 1.1252424 -0.92359698 4287663243
4.19696 1.1066476 -0.9297002 4289108887
5.0420136 1.2966753 -1.1230422 4288978841
5.0631275 1.2690384 -1.1260939 4294308579
5.0698709 1.2377161 -1.1258758 4294966248
5.0773697 1.2065847 -1.1258758 4282923048
5.0533009 1.168147 -1.1186827 4294829507
5.087986 1.1433299 -1.1250039 4294100916
5.0891843 1.1108391 -1.1236961 4294897904
5.2391124 1.1099643 -1.1563921 4293982961
5.3796568 1.1053241 -1.1869082 4283519848
5.4093084 1.0768725 -1.1921396 4282668919
5.4426465 1.0488379 -1.1982428 4281359982
5.4662485 1.0186446 -1.2021663 4282867312
5.4925661 0.98872036 -1.2067438 4285892250
3.3052919 0.57359928 -0.70954758 4283196016
5.5832133 0.93447071 -1.2246176 4280702062
5.6032948 0.90252608 -1.2278872 4280241259
5.6260862 0.87081861 -1.2318107 4280372843
5.6438732 0.8381474 -1.2346443 4280438636
5.6817608 0.80818111 -1.2420554 4280307054
5.7011185 0.77527887 -1.245325 4280308079
5.71351 0.7412889 -1.2470688 4279779152
5.7247314 0.70705634 -1.2485946 4281027929
5.7444701 0.67373884 -1.2520821 4280440427
5.757226 0.63945007 -1.2540439 4280439915
5.7610416 0.60411245 -1.2540439 4280504681
5.7675533 0.56904 -1.2546978 4280306789
5.7612181 0.5327397 -1.2525181 4280633171
5.7536831 0.49645442 -1.2501204 4281942853
5.6914415 0.45590663 -1.2355162 4291871425
1.8409017 0.13530776 -0.37256148 4282396705
5.7306881 0.38834599 -1.2431452 4287332736
5.7095842 0.35173085 -1.237914 4288059541
1.8537995 0.10199637 -0.37495917 4283055155
1.8504913 0.090426758 -0.37408727 4283644974
1.8500363 0.079028383 -0.3738693 4282132242
1.8241539 0.066695616 -0.36798406 4283709997
1.8137983 0.055168279 -0.36558634 4286013780
1.8326402 0.04449993 -0.36972782 4286805089
1.7050512 0.03085351 -0.34117338 4285951837
1.7022808 0.020353921 -0.34051946 4280754718
1.7023735 0.0099085383 -0.34051946 4281345832
1.7033783 -0.00053685461 -0.34073743 4281609004
1.7228618 -0.011101104 -0.34509689 4282004015
1.723737 -0.021683792 -0.34531486 4282004267
1.7196684 -0.032189626 -0.34444296 4281872681
1.7252926 -0.042882241 -0.34575081 4281805872
1.7669437 -0.054739371 -0.35512364 4281476909
5.7750854 -0.21173361 -1.2509923 4281675569
5.691771 -0.24367517 -1.2326826 4281280039
5.700892 -0.27911744 -1.2350802 4288584863
5.7068682 -0.31452027 -1.236824 4286547331
5.6765809 -0.34780595 -1.2305028 4286415747
5.6665497 -0.38210654 -1.2287591 4283915102
5.6475515 -0.41565427 -1.2250535 4286678404
5.6945119 -0.45424685 -1.2361702 4287007371
5.6984239 -0.48976278 -1.2376959 4287007371
5.6982274 -0.52498645 -1.2383499 4287073164
5.6948991 -0.55994022 -1.2383499 4287137926
5.6942677 -0.59517664 -1.2390038 4287005829
5.7021494 -0.63139141 -1.2416195 4278192405
5.7388816 -0.67112011 -1.2507743 4280498259
5.7404675 -0.70703518 -1.2520821 4280038740
5.7311811 -0.74161947 -1.2509923 4286089880
4.7274833 -0.64146286 -1.0258262 4286677636
5.7226157 -0.81203097 -1.2512102 4279772208
5.7136631 -0.84655768 -1.2503383 4280436067
5.6967864 -0.87981486 -1.2477227 4280761672
5.6411734 -0.90670979 -1.2363881 4282465845
4.7941456 -0.80094999 -1.0458798 4283647799
4.7766395 -0.82818681 -1.0430461 4283055153
4.7993255 -0.86247945 -1.0493673 4281874498
5.5606098 -1.0343593 -1.2235277 4280894302
5.5359483 -1.0649599 -1.2193862 4280698979
5.5168653 -1.0964372 -1.2165526 4281946198
5.4316344 -1.1142025 -1.1986787 4279310103
5.412282 -1.1448863 -1.1958451 4280296234
4.7748179 -1.0408289 -1.0517651 4282137658
4.7426291 -1.0643431 -1.0458798 4284045898
4.7474208 -1.096055 -1.0484954 4284571989
5.2534056 -1.246745 -1.1662009 4285493344
5.2105722 -1.2704099 -1.1581358 4279176967
4.9735551 -1.2450552 -1.1053864 4293124060
4.9402981 -1.268999 -1.0995011 4292991447
4.7936773 -1.2627751 -1.0674591 4280552458
4.7914929 -1.29369 -1.068767 4283119665
4.8088636 -1.3300842 -1.0746522 4282792761
4.9076672 -1.3898576 -1.0995011 4294308338
4.933732 -1.429989 -1.1075661 4294243824
4.9473233 -1.4668882 -1.1127975 4294573818
4.9214163 -1.4921235 -1.108874 4294442491
4.7201977 -1.5586318 -1.0705107 4294705148
4.5812173 -1.6702834 -1.0493673 4294506985
4.5608177 -1.6946251 -1.0469697 4294901224
4.5831962 -1.7350091 -1.0548167 4293060826
3.0842757 1.0618452 -0.72938097 4294375410
3.0778215 1.0385454 -0.72616738 4289311405
4.0759625 1.2100555 -0.96282333 4284638821
4.0487242 1.1749892 -0.95433027 4279899156
4.0745859 1.1554334 -0.95892107 4283780167
4.114429 1.1394998 -0.96695501 4283450691
4.1711421 1.1276911 -0.97912067 4288383108
4.2043343 1.1090249 -0.98554772 4292328629
4.9529142 1.2739627 -1.1661958 4285156166
4.96347 1.244258 -1.1668844 4281468160
4.9596648 1.2110097 -1.16413 4281663488
4.9537449 1.1774051 -1.1609163 4281470991
4.9694104 1.1489601 -1.1629822 4282984230
4.9887123 1.1212202 -1.1659663 4290155417
5.2455893 1.1451677 -1.2263353 4283518804
5.2753692 1.1178004 -1.2318443 4284771724
5.3050103 1.0901103 -1.2373532 4283200135
5.3383274 1.0628583 -1.2437804 4281818220
5.3667302 1.0343179 -1.2490598 4287206827
5.404551 1.0072513 -1.2566346 4282410359
5.4671464 0.98424125 -1.2701775 4281294196
5.4711652 0.95034391 -1.2697184 4281621881
5.5047321 0.92141342 -1.2763751 4281032056
5.5314221 0.89102352 -1.281425 4280899700
5.5627556 0.86108482 -1.2876226 4280702321
5.5862265 0.82965165 -1.2919838 4280504944
5.6114473 0.79823673 -1.2968042 4280242799
5.6326351 0.76601905 -1.3007063 4280242021
5.6546035 0.73369658 -1.3048381 4284777101
5.6792841 0.70149094 -1.3096584 4280698209
5.6767149 0.66583711 -1.3080516 4280436580
5.7242241 0.63582522 -1.318381 4280437607
5.7570577 0.60373342 -1.3252671 4280633957
5.7625909 0.56858844 -1.3257262 4280830047
5.7766323 0.53420436 -1.3282511 4280893258
5.7865891 0.49933481 -1.3298579 4288189325
5.786634 0.46358657 -1.3291693 4282990390
5.7816038 0.42749807 -1.327333 4287927446
1.8609717 0.12638864 -0.3999908 4285623913
1.8685124 0.11538608 -0.40159759 4291808453
1.8652979 0.10370363 -0.40067941 4289046436
1.8620107 0.092064962 -0.39976126 4288388256
1.8528166 0.080219172 -0.39746585 4290690239
1.8377117 0.068274103 -0.39379323 4282070062
1.8293405 0.056727175 -0.39172736 4283582261
1.8559253 0.046149272 -0.39792493 4284501044
1.7510751 0.032814346 -0.37313461 4287529075
1.7210735 0.021695783 -0.36601886 4280425237
1.7163079 0.011104675 -0.36487117 4281280293
1.7105039 0.00057276204 -0.36349392 4281477420
1.7241012 -0.010004826 -0.36670747 4282004016
1.7152483 -0.020476984 -0.36464161 4282004015
1.7209291 -0.031108018 -0.36601886 4281806890
1.7330649 -0.05261087 -0.36900288 4281675051
5.7843051 -0.24757856 -1.3254967 4280229422
5.7817049 -0.28301808 -1.3252671 4285624430
5.7866616 -0.31886393 -1.3268739 4287005061
5.7758532 -0.35382804 -1.324808 4287006091
5.6424766 -0.38041383 -1.2938201 4287072899
5.6575079 -0.41631517 -1.2979518 4285492841
5.7780643 -0.46085715 -1.3271035 4287334796
5.7770672 -0.49646887 -1.3275626 4286940297
5.7777891 -0.53226429 -1.3284807 4286874758
5.7763515 -0.56789672 -1.3289398 4287401876
5.7766304 -0.60373396 -1.3298579 4283587937
5.7718496 -0.6390602 -1.3296283 4280102713
5.7629862 -0.67389804 -1.3284807 4279972683
5.748117 -0.707937 -1.3259557 4280498263
5.7233949 -0.74056929 -1.3211354 4280433749
5.7110271 -0.77462631 -1.3192991 4287667881
4.7107286 -0.66834211 -1.0821841 4282273886
5.6568031 -0.83808655 -1.3087403 4280238175
5.6352024 -0.8702538 -1.3048381 4281090123
5.5874748 -0.89801592 -1.2947383 4282337084
4.8061872 -0.80267578 -1.1092699 4283582006
4.7848687 -0.82932395 -1.1053677 4283449141
4.7998071 -0.86228335 -1.110188 4282268219
5.5053844 -1.024008 -1.2807363 4281483616
5.4789262 -1.0539068 -1.275916 4282341989
5.384531 -1.0700455 -1.2547983 4280824629
5.3978863 -1.1071725 -1.2596186 4278850841
5.3271928 -1.1267735 -1.2442394 4281815390
5.3325415 -1.1621345 -1.2472235 4281161070
5.3072662 -1.1907827 -1.2428622 4281686126
5.2789965 -1.2185076 -1.2378123 4281749850
5.235435 -1.2423342 -1.2290897 4281550400
4.809763 -1.1725132 -1.1276331 4282796350
4.7741537 -1.1949117 -1.1207469 4286741361
4.8025541 -1.2333856 -1.1294694 4282134310
4.8137193 -1.2677895 -1.1340601 4281341974
4.8114877 -1.2988244 -1.1354374 4281345060
4.8156223 -1.331696 -1.1384214 4283518025
4.8185983 -1.3644019 -1.1411759 4294901243
4.8250928 -1.3982784 -1.1448486 4294770427
4.8201547 -1.428965 -1.1457667 4294769916
4.7880106 -1.4514533 -1.1400282 4294966526
4.7325311 -1.4663975 -1.1285512 4292005319
4.589829 -1.4530952 -1.0954974 4288975743
4.5761962 -1.4797328 -1.0943497 4290617989
4.5771971 -1.5111413 -1.0968747 4293054131
4.5512366 -1.5336022 -1.0927429 4294965470
4.5086069 -1.5501044 -1.0844795 4294834921
4.5688119 -1.602224 -1.1019245 4294965717
4.5167389 -1.615149 -1.0913657 4288779084
4.4939413 -1.638165 -1.0881522 4289893454
4.4801555 -1.6643525 -1.087234 4289039443
4.4826026 -1.6966352 -1.0904475 4287463497
4.4948111 -1.7328627 -1.096186 4293781958
2.9932649 1.0710185 -0.74842626 4292929254
3.0373249 1.0658219 -0.75829643 4294769914
3.0805144 1.0598085 -0.76792586 4279374095
3.0897183 1.0418183 -0.76864809 4288259489
4.0663271 1.2612343 -1.0158843 4287140497
3.9755476 1.2063582 -0.99036622 4285956223
3.9177465 1.1625949 -0.97351468 4294440951
4.0767365 1.182654 -1.0127547 4283255114
4.7944832 1.3592443 -1.195955 4294898671
4.7952504 1.3277267 -1.1940291 4282527269
4.7976851 1.2967577 -1.1925846 4291869347
4.811182 1.2687815 -1.1940291 4289041779
4.7878585 1.2312523 -1.1860847 4291210125
4.8433356 1.2138966 -1.1983624 4293578155
4.830893 1.1793174 -1.1933069 4294365092
4.8531456 1.1532471 -1.1971587 4293511074
4.8724236 1.1262916 -1.2002883 4289366918
5.0004492 1.1236389 -1.2311025 4285431172
5.138104 1.1215285 -1.2643241 4292017143
5.2037554 1.1024656 -1.2792498 4291686115
5.2379928 1.0761861 -1.286231 4281025347
5.2740049 1.0499068 -1.2936939 4286552737
5.3127503 1.0237776 -1.3018789 4282410607
5.3418317 0.99543226 -1.3076566 4282673789
5.3698082 0.96659619 -1.3131936 4282345858
5.4100628 0.93961591 -1.3218601 4281821570
5.4300852 0.90880895 -1.3254712 4281755009
5.463347 0.87995505 -1.3324524 4281426812
5.491663 0.84998393 -1.3382301 4281164151
5.5236559 0.82026935 -1.3449707 4281032567
5.5583725 0.79060453 -1.3524336 4281555310
5.58043 0.75884181 -1.3567668 4286025115
5.6013436 0.72671294 -1.3608594 4281223776
5.6182189 0.69387925 -1.3639889 4281555059
5.640686 0.66154522 -1.3685629 4281226864
5.658144 0.62842494 -1.3719332 4281161332
5.6927824 0.5969407 -1.3796368 4281290349
5.7166219 0.5640046 -1.3846922 4280761682
5.728673 0.52972353 -1.3868588 4287865258
5.7289143 0.4943122 -1.3861367 4283261282
1.8454899 0.1470387 -0.419099 4281674791
1.8453894 0.13564043 -0.41885826 4280160523
1.8500603 0.12457807 -0.4198212 4281476648
5.8197255 0.35853848 -1.4061178 4280694850
5.8392591 0.32379335 -1.4104511 4280759614
5.8169012 0.2867586 -1.4044327 4279836712
5.7981877 0.25017864 -1.3993771 4282004536
1.8113046 0.066217579 -0.40946954 4283584829
1.8048859 0.054891452 -0.40778437 4285622610
1.8071294 0.043864205 -0.40826586 4286278222
1.711293 0.030970739 -0.38443297 4288186489
1.7201853 0.020580294 -0.3865996 4280293138
1.7008678 0.0098987408 -0.38178486 4281280293
1.7096319 -0.00053453527 -0.38395149 4281477671
1.710567 -0.011030224 -0.38419223 4282004015
1.7124082 -0.021548962 -0.38467371 4282069808
1.7306819 -0.032388296 -0.38924769 4281872429
1.7401537 -0.043241549 -0.39165506 4281544745
1.7524675 -0.054300487 -0.39478463 4281675820
1.757921 -0.06526459 -0.39622906 4282399544
1.7933668 -0.07757844 -0.40513629 4282135350
5.811182 -0.28449461 -1.4029882 4280426529
5.7909131 -0.31913498 -1.3984143 4284437594
5.7946587 -0.35501626 -1.3998586 4282793029
5.7952766 -0.39076027 -1.4005808 4284308570
5.5043097 -0.4051415 -1.3288414 4283715661
5.8161683 -0.46392623 -1.4070807 4291479237
5.8161139 -0.49985361 -1.4078029 4288716451
5.7829747 -0.53277695 -1.4003401 4286874247
5.7757335 -0.56787145 -1.3993771 4282268743
5.7576599 -0.60178947 -1.3957661 4279374103
5.7384238 -0.63540047 -1.3919144 4281809473
5.7189918 -0.66879827 -1.3880625 4280888648
5.6935873 -0.70127076 -1.3827664 4281091427
5.6660752 -0.73320806 -1.3769886 4281025385
5.6556983 -0.76717901 -1.3755442 4286552486
5.6499238 -0.80173111 -1.3753035 4279775807
5.6199346 -0.83268982 -1.3690444 4280893017
5.5888195 -0.86316282 -1.3625445 4281615441
5.543169 -0.89097798 -1.3524336 4282598203
4.8071313 -0.8031162 -1.1687518 4283385397
4.8049817 -0.83309388 -1.169474 4283055662
4.8236628 -0.8668471 -1.1754924 4282466363
5.4289789 -1.009902 -1.3295636 4282666081
5.2673163 -1.0133404 -1.2903236 4280957763
5.3657203 -1.0664309 -1.3168046 4279904309
5.3248458 -1.0923201 -1.3081381 4280367441
5.3075976 -1.1227648 -1.30549 4281291368
5.289228 -1.1528327 -1.3026011 4281291619
5.261219 -1.1805943 -1.297305 4281291099
5.2283406 -1.2069652 -1.2908051 4281093207
5.1849484 -1.2305143 -1.2816571 4281356383
5.0754547 -1.2374974 -1.2556576 4281092960
4.9510088 -1.2394165 -1.2258062 4280696143
4.9517717 -1.2719432 -1.2279729 4281349951
4.8284225 -1.2719191 -1.1983624 4279637013
4.70995 -1.2716942 -1.1699555 4282729017
4.688025 -1.2966921 -1.1663444 4286874229
4.6351523 -1.3127487 -1.1547891 4294046181
4.6568437 -1.349804 -1.1624926 4291282877
4.6838369 -1.388829 -1.1716406 4294702834
4.6854453 -1.4206377 -1.1742887 4294964985
4.6877656 -1.4528055 -1.1771775 4294901243
4.6787634 -1.4815416 -1.1771775 4294964202
4.5624509 -1.4756016 -1.1492522 4288314982
4.5016947 -1.4865381 -1.1357709 4289366107
4.4474173 -1.4989535 -1.1239748 4290155096
4.4445615 -1.528422 -1.1256599 4289301584
4.4341836 -1.5553435 -1.1254193 4288317779
4.449234 -1.5913411 -1.1319191 4292660376
4.4667449 -1.6285785 -1.1391412 4285553192
4.4775958 -1.6637256 -1.1446781 4287593280
4.4718418 -1.6928853 -1.1458819 4287856702
4.4758611 -1.7258759 -1.1497337 4287198017
4.4615731 -1.7518885 -1.1487707 4286410845
4.0439787 1.5033027 -1.0843112 4292600552
4.0303988 1.4701729 -1.0780053 4294572776
2.9687769 1.0624393 -0.78162533 4293848036
4.0600071 1.4247675 -1.0812844 4281609247
3.1023781 1.0674725 -0.81492078 4282137658
4.0982757 1.3819472 -1.0870858 4287207055
4.0561414 1.3400834 -1.0732127 4287272335
4.0965118 1.3255943 -1.082041 4289046438
4.0815058 1.2931291 -1.0757351 4284572263
3.8850987 1.2047415 -1.0199904 4286808711
3.8535252 1.169085 -1.0093964 4292464849
3.9710248 1.1781613 -1.0394129 4282330152
4.1082945 1.1914967 -1.0747262 4288185469
4.7151098 1.3361182 -1.2371676 4292001194
4.7176237 1.3056135 -1.2356541 4285027906
4.7096643 1.2723529 -1.2313662 4294962132
4.2485847 1.1199028 -1.1049948 4289630326
4.7108655 1.2108501 -1.2275826 4294625946
4.7116361 1.1802766 -1.2258168 4294955170
4.7300701 1.1540959 -1.2288437 4294299554
4.7596588 1.1304156 -1.2348975 4292135339
4.9927888 1.1534482 -1.2954346 4283392363
5.0044928 1.1238511 -1.2966958 4283263099
5.0150766 1.0939475 -1.2977048 4292274921
5.0500951 1.0691656 -1.305272 4287274652
5.1532469 1.0580018 -1.3310002 4284183168
3.2491357 0.64646876 -0.82324463 4287341485
5.2618146 1.0131561 -1.3564763 4282742923
5.2850571 0.98403805 -1.3610166 4282545026
5.3176622 0.9563852 -1.3680793 4281951348
5.3482194 0.92803824 -1.3746375 4282413182
5.3795824 0.89951169 -1.3814479 4281822850
5.4060192 0.86986673 -1.3869971 4282149508
5.4370756 0.84067017 -1.3938075 4282278009
5.4670186 0.810983 -1.4003657 4283918450
5.4968009 0.78096002 -1.4069239 4286281592
5.5292964 0.75099242 -1.4142388 4285556325
5.5481954 0.7189154 -1.4180224 4284437584
5.5592246 0.68568742 -1.4197881 4280950807
5.596005 0.65538859 -1.4283642 4279109120
5.6181946 0.62306517 -1.4331567 4280357648
5.6411605 0.59059471 -1.4382014 4281146135
5.6581602 0.55729705 -1.4417328 4287659383
5.6720724 0.52354634 -1.4445075 4283777336
5.6848192 0.48956287 -1.4470298 4284172607
5.6828928 0.45428708 -1.4457686 4284830283
5.6749578 0.41862661 -1.442994 4285487956
1.8802415 0.12736645 -0.45094097 4288520860
5.703814 0.35043651 -1.4492999 4288119676
5.687499 0.31441832 -1.4445075 4288448120
5.7241154 0.28122163 -1.453588 4284566074
5.6976967 0.2448907 -1.4462731 4282723629
1.8252429 0.067497246 -0.43580669 4282464550
1.8188522 0.056089163 -0.43404102 4285949004
1.8143253 0.044809416 -0.43277982 4286803539
1.7536134 0.032557946 -0.4168888 4289501830
1.7479745 0.021726493 -0.41537538 4280425751
1.715175 0.010800992 -0.40679929 4281019430
1.7190796 0.00027641933 -0.40780824 4281018918
1.7171136 -0.010259659 -0.40730375 4281873712
1.717986 -0.020807415 -0.407556 4282267441
1.7362084 -0.031688008 -0.41234851 4282135340
1.7388835 -0.04241202 -0.41310525 4282003502
1.7530986 -0.053527005 -0.4168888 4281478442
1.7817475 -0.065353215 -0.42445597 4281348146
1.7822797 -0.076326199 -0.42470819 4281018927
5.5153537 -0.27092439 -1.3991046 4290422680
5.3754225 -0.2971141 -1.3630345 4289304710
5.3667378 -0.3296757 -1.3612688 4286541404
5.3964734 -0.36475492 -1.3695927 4291607465
5.3796582 -0.39679149 -1.3658091 4292264882
5.5015535 -0.43974781 -1.3983479 4287660137
5.4958596 -0.47324711 -1.3975911 4288976258
5.663403 -0.52271324 -1.4422373 4283646774
5.6533484 -0.55678898 -1.4404716 4282332459
5.6758103 -0.59418887 -1.4472821 4280688405
5.6605163 -0.62772316 -1.4442552 4281941559
5.6421418 -0.66075438 -1.4404716 4280499007
5.6427836 -0.69595397 -1.4417328 4280170826
5.6268911 -0.7290715 -1.4387059 4280368985
5.6117644 -0.76215053 -1.4359313 4279117889
4.7227149 -0.67088181 -1.2031155 4283592064
5.5665736 -0.82570231 -1.4265985 4280631381
5.525063 -0.85422164 -1.4170135 4281286987
5.4929671 -0.8838008 -1.4099509 4282730049
4.8451262 -0.81004858 -1.2401944 4283385405
4.8343444 -0.8387695 -1.2386811 4283252532
4.8348203 -0.86944473 -1.2401944 4282661425
5.3535638 -0.99672234 -1.3791777 4282203966
5.3520985 -1.0304676 -1.3804389 4281022528
5.153965 -1.0251415 -1.3294868 4280563007
5.2954473 -1.0871139 -1.3688359 4281086526
5.1391039 -1.0879104 -1.3289824 4288322980
5.115314 -1.1157099 -1.324442 4279967267
5.1867352 -1.1646783 -1.3453778 4279773742
5.1710057 -1.1945207 -1.3431077 4281287498
4.985642 -1.1839573 -1.2954346 4284512637
4.7639465 -1.1622185 -1.2379243 4285499532
4.8834429 -1.2231776 -1.2719765 4279576623
4.9751878 -1.2786585 -1.2987137 4280563005
4.929821 -1.2992941 -1.2886242 4281220420
4.7965784 -1.2956939 -1.2548243 4282531909
4.6150751 -1.2770849 -1.2079079 4284633934
4.6034279 -1.3043228 -1.206899 4292399301
4.6129956 -1.3376665 -1.2116915 4294768358
4.5935693 -1.3626426 -1.2086647 4294704364
4.579566 -1.389117 -1.2071513 4294704113
4.5940619 -1.4243563 -1.2134572 4294967286
4.5926156 -1.4548566 -1.2154751 4285353278
4.575316 -1.4803274 -1.213205 4284955173
4.5257196 -1.4950148 -1.2021065 4286337594
4.4559441 -1.5023466 -1.1854588 4288180550
4.4365768 -1.5261962 -1.1826842 4289168209
4.4225636 -1.5517875 -1.1814229 4289235534
4.4175143 -1.5805249 -1.1826842 4288514141
4.4231868 -1.6132385 -1.1869721 4287987813
4.5066266 -1.6750811 -1.2129527 4283446552
4.5143628 -1.7095571 -1.2179976 4285683239
4.5389972 -1.7508088 -1.2278348 4290094452
4.5326724 -1.7803957 -1.2290959 4293912263
4.5432258 -1.8167993 -1.2351497 4294899693
4.0747819 1.5731146 -1.1511643 4286614668
4.0527868 1.5361067 -1.1419524 4293191913
2.7873459 1.0365664 -0.770841 4294507257
2.7936535 1.019444 -0.770841 4292927434
4.0049968 1.4342308 -1.1201068 4288647269
4.0337448 1.4166682 -1.1258972 4283516215
3.1786072 1.094213 -0.87664723 4291941076
4.0362015 1.3621213 -1.121686 4288122754
4.0792875 1.3488488 -1.1316876 4286281579
4.0590377 1.314571 -1.1235284 4287861390
4.1111646 1.3036495 -1.1361619 4292599258
3.7266088 1.1564733 -1.0240389 4292796888
4.5247092 1.3437568 -1.2472322 4284306249
4.0928192 1.188096 -1.1222124 4284108093
4.5956135 1.3036779 -1.262761 4290553487
4.5616918 1.2638535 -1.250917 4288444520
4.5600486 1.2333186 -1.2482851 4294303163
4.5917811 1.2117217 -1.2551281 4294038180
4.6009984 1.1840055 -1.2556546 4294232468
4.6109838 1.1564567 -1.2564442 4294234270
4.6273642 1.1304343 -1.2590762 4291541664
4.9035668 1.1661425 -1.3346145 4283455327
4.930367 1.1406037 -1.3401417 4291881707
4.9768028 1.1192294 -1.3511961 4281154876
4.9864044 1.0892897 -1.3519857 4287860624
4.9863877 1.0572708 -1.3501432 4294769655
4.9143524 1.0105091 -1.3282977 4294376191
4.9422202 0.9846769 -1.3343513 4292997881
5.0211067 0.96841818 -1.3546176 4283001208
5.2507639 0.97938746 -1.4167328 4283333002
5.2718658 0.94989145 -1.420944 4282938760
5.306108 0.92248952 -1.4288399 4281818985
5.3278427 0.89262801 -1.4333143 4282674044
5.3646493 0.86499476 -1.4419999 4282083966
5.3812962 0.83383679 -1.4451582 4282016892
5.408258 0.80406994 -1.4512119 4282607479
5.4407873 0.77482069 -1.4588447 4283459198
5.4645567 0.74402922 -1.4641087 4281358960
5.5005894 0.71459347 -1.4727943 4281227891
5.5134869 0.68189657 -1.4751631 4281292136
5.531939 0.64974469 -1.4791111 4281224543
5.5444512 0.6167509 -1.4814799 4281879138
5.5538878 0.58332497 -1.483059 4284180327
5.571763 0.55066228 -1.487007 4280298285
5.5827217 0.5171777 -1.4891126 4281089620
1.8085151 0.155558 -0.45473829 4282269246
1.8459775 0.14739934 -0.46473986 4282136633
1.8853307 0.13892968 -0.47526789 4280888119
5.5715952 0.37850651 -1.483059 4281287765
5.5853672 0.34502897 -1.4862174 4281023566
5.5787101 0.3102673 -1.4838487 4280696911
5.5573835 0.27488244 -1.4775318 4281880165
5.3305383 0.23083563 -1.4151535 4282144610
1.7754067 0.065189593 -0.44421032 4283976257
1.8037372 0.05516813 -0.45184311 4286013772
1.8098283 0.044244781 -0.45342231 4287131473
1.7309712 0.031639773 -0.43183994 4287461728
1.7205215 0.020882126 -0.42894474 4279306756
1.6974639 0.010170114 -0.42262796 4281019179
1.6907412 -0.00024920265 -0.42078555 4281347885
1.6974609 -0.010661145 -0.42262796 4281873712
1.6925402 -0.021019805 -0.42131194 4282135855
1.700096 -0.031542491 -0.42341754 4282069034
1.7133729 -0.042297587 -0.42710236 4281740582
5.2587099 -0.19198987 -1.3951504 4282334279
5.2728548 -0.22490749 -1.3993616 4282926163
1.7744532 -0.087375909 -0.44421032 4280887868
5.2764416 -0.28996566 -1.401204 4281415729
5.3111548 -0.32456389 -1.4112055 4282994248
5.2801862 -0.35521021 -1.4033096 4284177495
5.3154316 -0.39034951 -1.4135743 4285624428
5.3821802 -0.4284541 -1.4325247 4283518276
5.3929067 -0.46262199 -1.4362096 4283257671
5.4034171 -0.49693754 -1.4398943 4280823592
5.4338713 -0.53337425 -1.4491063 4280297764
5.5034218 -0.57430023 -1.4691094 4280427555
5.5007534 -0.60816365 -1.4693726 4280756007
5.3752198 -0.62771893 -1.4359463 4280165928
5.5024514 -0.67679626 -1.4720047 4280429871
5.469491 -0.70684254 -1.4641087 4281021497
5.4000406 -0.73159605 -1.4462111 4282138697
5.3104353 -0.75268543 -1.4227864 4286744207
5.4049716 -0.7999233 -1.4501591 4279836196
5.4152174 -0.83542281 -1.4543703 4279835166
4.9479914 -0.7945565 -1.3267184 4282071091
4.8459578 -0.80872679 -1.2998722 4283516731
4.818089 -0.83449984 -1.2935554 4282924078
4.8480134 -0.87034643 -1.3032937 4283515704
5.3415127 -0.99268901 -1.4417367 4281540897
5.3012137 -1.0188974 -1.4322615 4288187793
4.9210711 -0.97726613 -1.3282977 4285689971
4.8781214 -0.99989641 -1.3180329 4286216565
4.7841086 -1.0112748 -1.2935554 4288189840
4.9229884 -1.0721933 -1.3340881 4281741348
4.9389105 -1.1074406 -1.3404049 4280492574
4.9799676 -1.1487727 -1.3538281 4280561461
4.9991102 -1.1855348 -1.3611976 4280233013
4.981431 -1.2136767 -1.3583025 4280496960
4.9720182 -1.2437515 -1.357776 4280234303
4.9185028 -1.2624935 -1.3448793 4280563525
4.8910699 -1.2874962 -1.339352 4281156694
4.8486128 -1.3081927 -1.3296137 4281289046
4.6461382 -1.284247 -1.2746049 4278325528
4.5109882 -1.2767681 -1.2385466 4293915636
4.5039954 -1.3046912 -1.2388098 4294768887
4.4922051 -1.331207 -1.237757 4294572529
4.4894929 -1.360423 -1.2393363 4294373091
