# .PCD v0.7 - Point Cloud Data file format
VERSION 0.7
FIELDS x y z rgb
SIZE 4 4 4 4
TYPE F F F U
COUNT 1 1 1 1
WIDTH 1112
HEIGHT 1
VIEWPOINT 0 0 0 1 0 0 0
POINTS 1112
DATA ascii
5.4436789 -0.43511766 -1.3832135 4285683522
5.4794703 -0.47183466 -1.393303 4285421381
5.646059 -0.52111125 -1.4376971 4284041532
5.6591263 -0.55735844 -1.441985 4282398250
5.6479006 -0.59126514 -1.4399672 4280360210
5.6383958 -0.62526852 -1.4384537 4279967255
5.6431026 -0.66086698 -1.4407239 4280099619
5.6447043 -0.69619101 -1.4422373 4279707945
5.6288104 -0.72932029 -1.4392104 4280037431
5.6156001 -0.76267171 -1.4369403 4278522652
5.5935698 -0.79466283 -1.4324 4281088321
5.5627446 -0.8251341 -1.4255896 4279707957
5.5518389 -0.85836339 -1.4240761 4280957765
5.5225835 -0.8885681 -1.4177701 4286151023
4.8365364 -0.80861181 -1.2379243 4282530088
4.8286238 -0.83777654 -1.2371676 4281346588
4.8205347 -0.86687458 -1.2364109 4280887066
5.0776854 -0.94533908 -1.3060286 4278388748
5.3539991 -1.0308337 -1.3809434 4292929266
5.0837345 -1.011167 -1.3108212 4280626226
5.2982907 -1.0876979 -1.3695927 4293327347
5.2612243 -1.1137719 -1.361521 4286486152
5.0500798 -1.1014764 -1.3070376 4292145116
5.2065625 -1.169132 -1.3506749 4289381293
5.1832623 -1.197353 -1.3463868 4290235577
5.0477791 -1.1987182 -1.3120824 4286418306
4.7968488 -1.1702482 -1.2467526 4284970607
4.7933326 -1.2005998 -1.2477616 4283983976
4.9695649 -1.2772129 -1.2972003 4279772972
4.9354353 -1.3007743 -1.2901376 4279838506
4.8685088 -1.3151304 -1.2742466 4288720042
4.6327944 -1.2819898 -1.2127005 4283707944
4.6080832 -1.3056422 -1.2081602 4285020457
4.5971966 -1.3330837 -1.2074035 4289954669
4.5870752 -1.3607157 -1.206899 4289823334
4.5841956 -1.3905218 -1.2084124 4289164888
4.5885167 -1.4226366 -1.2119437 4288770898
4.5944605 -1.4554412 -1.2159796 4288573000
4.5826812 -1.482711 -1.2152228 4288374340
4.5689034 -1.5092839 -1.2139617 4282915072
4.4632797 -1.5048206 -1.1874766 4288379471
4.4420667 -1.5280854 -1.1841975 4288182335
4.4271288 -1.5533898 -1.1826842 4287128879
4.4166036 -1.5801988 -1.1824319 4286209062
4.4140964 -1.6099221 -1.1844498 4285552684
4.4195542 -1.6427088 -1.1887379 4284172328
4.4989791 -1.70373 -1.2137095 4282790940
4.4920511 -1.7326963 -1.2147183 4282395665
4.5596919 -1.7910113 -1.2366631 4282725662
4.5207644 -1.807815 -1.2288437 4282071328
4.0248241 1.5254995 -1.1337932 4293453530
4.0277796 1.4984187 -1.1319507 4281937175
2.8262751 1.0313625 -0.78031617 4282593321
4.0158944 1.4381369 -1.1232651 4288909162
4.0119009 1.4089899 -1.1195804 4286212942
3.177695 1.0938987 -0.87638402 4281148958
4.0435138 1.3645912 -1.1237916 4287333248
4.0655489 1.3443019 -1.1277395 4284237384
4.0627084 1.315761 -1.1245812 4281277975
4.1038079 1.3013147 -1.1340563 4285164128
3.7164743 1.153325 -1.0211438 4284045908
3.7539418 1.1397576 -1.0298294 4282926663
4.2269392 1.255244 -1.1624819 4282860094
4.1048627 1.1915958 -1.125634 4279502339
4.6058221 1.3065766 -1.2656561 4289828224
4.6072445 1.2764865 -1.2638137 4293377696
4.5414238 1.2282765 -1.243021 4283902750
4.6150999 1.2178813 -1.2617081 4291070327
4.6122093 1.1868935 -1.258813 4291467633
4.6203408 1.158806 -1.2590762 4291271785
4.5983133 1.1233298 -1.250917 4282195984
4.8923044 1.1634613 -1.3314561 4280754726
4.9378862 1.142345 -1.3422472 4279114015
4.973979 1.1185938 -1.3504064 4283520099
4.9948864 1.0911446 -1.3543544 4286216066
5.0014873 1.0604759 -1.3543544 4282071869
4.9701028 1.0219864 -1.3438264 4279507745
4.9280291 0.98184597 -1.3304033 4282403677
4.9860592 0.96165019 -1.3448793 4280234048
5.1938634 0.96876121 -1.4009408 4280628556
5.2737646 0.950234 -1.4214703 4280300874
5.2928019 0.92017317 -1.4251552 4280234561
5.3192797 0.89119148 -1.4309455 4280234561
5.3503633 0.86268812 -1.4380519 4280235079
5.3736691 0.83265334 -1.4430526 4280105035
5.395853 0.80222291 -1.4477903 4279971388
5.424551 0.77250499 -1.4543703 4286021505
5.4722037 0.74507207 -1.4662143 4279968549
5.4584956 0.70911592 -1.4612135 4280759364
5.5144444 0.68201518 -1.4754262 4280693312
5.5281067 0.64929378 -1.4780582 4280759103
5.5300694 0.61514801 -1.4775318 4280235831
5.5510097 0.58302206 -1.4822694 4282070840
5.5612025 0.54961634 -1.4841118 4285423452
5.5471792 0.51387763 -1.4793743 4281083943
5.5550342 0.48024756 -1.4806902 4281018670
1.8498241 0.14770892 -0.46579266 4284831064
5.5706325 0.37844092 -1.4827958 4280558887
5.5738125 0.34431276 -1.483059 4280492833
5.5613718 0.30929935 -1.4791111 4280362537
5.5516024 0.27459526 -1.4759526 4280297778
5.3845124 0.23318483 -1.4298927 4282140240
1.8130053 0.066594973 -0.4544751 4285031513
1.7969873 0.054957293 -0.4500007 4286607189
1.8300815 0.044753022 -0.45894951 4284894257
1.7608727 0.032206573 -0.43999913 4284828979
1.7494613 0.021253075 -0.43684074 4281542165
1.7215819 0.010331257 -0.42920795 4281214751
1.7235425 -0.00023131236 -0.42973435 4280951327
1.7206143 -0.010790586 -0.42894474 4280623132
1.7243745 -0.021393124 -0.42999753 4280426266
1.7319274 -0.032111134 -0.43210313 4280360473
1.7403779 -0.042945787 -0.43447194 4280228632
1.7487603 -0.053885341 -0.43684074 4279966229
5.2828126 -0.19286446 -1.4017304 4284902504
5.2738185 -0.22494838 -1.3996247 4289442466
1.7831256 -0.087797217 -0.4465791 4279834396
5.3101916 -0.32450524 -1.4109423 4291018939
5.2763357 -0.35495204 -1.4022567 4283320903
5.2904153 -0.38851792 -1.4067311 4282661686
5.3542905 -0.42624 -1.4248919 4282989360
5.3890619 -0.46229297 -1.4351567 4283253559
5.3890061 -0.49561539 -1.4359463 4280164634
5.4252295 -0.53252786 -1.4467375 4279639836
5.4612012 -0.56990349 -1.4575287 4279967004
5.5266442 -0.61102057 -1.4764791 4279639066
5.4566717 -0.63721299 -1.4583182 4279508250
5.5053244 -0.677149 -1.4727943 4280033826
5.4340887 -0.70227504 -1.4543703 4280232494
5.3990846 -0.73146677 -1.4459479 4280036146
5.3658381 -0.76052576 -1.4380519 4282996316
4.703505 -0.69626153 -1.2567074 4279640875
5.3913803 -0.83175057 -1.4477903 4279046420
5.3776021 -0.86344111 -1.4454215 4282333483
4.846909 -0.80888534 -1.3001354 4282200598
4.8418546 -0.83861023 -1.3001354 4281345564
4.8442149 -0.86966544 -1.302241 4281281314
5.3301306 -0.99057621 -1.4385782 4281151529
5.1420436 -0.98834062 -1.388044 4280098075
4.8803797 -0.96919519 -1.3169801 4282203194
5.0992837 -1.0451751 -1.3796216 4282994248
4.7727814 -1.0088834 -1.2903969 4282795839
4.8089228 -1.0473783 -1.302241 4283781446
4.9407935 -1.1078624 -1.3409313 4286216300
4.9846683 -1.149856 -1.355144 4279836184
4.9700089 -1.1786404 -1.3530384 4280100908
4.9776812 -1.2127641 -1.3572496 4279641388
4.9813776 -1.2460907 -1.3604081 4279378214
4.9437342 -1.2689638 -1.3519857 4282275418
4.8929358 -1.287987 -1.3398784 4286754992
4.8588591 -1.3109547 -1.3325089 4287413169
4.7679596 -1.317888 -1.3090841 4279311895
4.5388384 -1.2846432 -1.2464426 4283578676
4.5243831 -1.3105915 -1.2446002 4284035872
4.504231 -1.3347675 -1.2411786 4284232481
4.490416 -1.3607025 -1.2395995 4284364582
4.4847469 -1.3890852 -1.240389 4284299302
4.4715405 -1.4151227 -1.239073 4284364067
4.466445 -1.4437189 -1.2401258 4284429345
4.4794917 -1.4783483 -1.2464426 4283903261
4.4419918 -1.4962662 -1.2382834 4283115028
4.4518881 -1.5300738 -1.2438107 4281932812
4.435132 -1.5548098 -1.2417051 4283708707
4.4182405 -1.5793978 -1.2395995 4284038950
4.4456334 -1.6200114 -1.2503906 4281211394
4.4500813 -1.652629 -1.2546018 4283118887
4.4705381 -1.6915033 -1.2635505 4283842086
4.4816823 -1.7272234 -1.2698674 4283052820
4.4754906 -1.756451 -1.2711834 4284037659
4.4691091 -1.7856679 -1.2724993 4284563228
4.500968 -1.8304911 -1.2851329 4282201635
4.0231357 1.5528128 -1.1901728 4294241242
4.0002155 1.5158343 -1.1802921 4282988323
2.7656384 1.0287719 -0.80153352 4281606929
4.0194197 1.4669609 -1.1805665 4286539058
4.021102 1.4396783 -1.1783708 4287330116
3.9826791 1.3984168 -1.1640989 4280884744
3.2001288 1.1017154 -0.92531621 4285097555
3.9749386 1.3411398 -1.1566883 4294894518
3.9767015 1.3146126 -1.154767 4291011191
3.987438 1.2910757 -1.1555904 4291144081
3.6249518 1.1492196 -1.0447075 4284962123
4.1196213 1.2782261 -1.1904472 4286080351
4.2102013 1.2780558 -1.2151489 4285358688
4.4558034 1.3227836 -1.2859603 4285422682
4.1424518 1.2021807 -1.1904472 4278714368
4.4855776 1.2719383 -1.2900772 4281538062
4.4905176 1.2436217 -1.2892538 4293639839
4.5027051 1.2172992 -1.2906262 4291073904
4.5082302 1.189158 -1.2900772 4291860585
4.5126481 1.1607553 -1.2892538 4291730034
4.5308781 1.1358492 -1.2925473 4282919959
4.7797127 1.1670851 -1.3636333 4280228125
4.8588214 1.1548514 -1.3847668 4280164656
4.8564467 1.122851 -1.3820223 4282335565
4.8688745 1.094296 -1.383669 4284176992
4.7843671 1.0445127 -1.3570461 4284242523
4.7483535 1.00617 -1.3446953 4287138431
4.7563214 0.97740275 -1.3452442 4286743920
4.7688313 0.94951403 -1.3471655 4287072111
4.7849541 0.92223614 -1.3501846 4286809206
4.7508187 0.88546205 -1.3386571 4281350973
4.7608943 0.85714656 -1.3400295 4281022275
4.7414312 0.82364106 -1.3328934 4281087554
4.7350144 0.79262853 -1.3295999 4280693821
5.2676387 0.84855092 -1.4822011 4281155401
5.335465 0.82591748 -1.5003157 4280167479
5.3566022 0.79556447 -1.5049815 4285692549
5.3861356 0.76620144 -1.5121176 4279705898
5.4088392 0.7355991 -1.5173323 4280365377
5.3712921 0.69695592 -1.5052561 4279971909
5.3821483 0.66480982 -1.5071772 4279906876
5.3183169 0.62382418 -1.4876903 4280496185
4.9349751 0.54821193 -1.3765329 4279309842
4.8464355 0.50829935 -1.3501846 4286346353
4.7824759 0.47194758 -1.3309722 4281082913
4.7603865 0.44029337 -1.3238361 4286084979
1.8812051 0.16259405 -0.49825221 4284308316
4.7577629 0.38122916 -1.3216404 4283980123
4.737956 0.35039952 -1.3153278 4283126614
4.7649608 0.32301027 -1.3224639 4279970092
4.7783709 0.29447579 -1.3257574 4280430902
4.8021703 0.26637387 -1.33207 4280168255
5.3732524 0.26494515 -1.4948264 4286553250
5.1999278 0.22443676 -1.4448742 4286948518
1.8388702 0.068316899 -0.48452908 4284768600
1.8354102 0.056914113 -0.48343122 4287857763
1.8376474 0.045698587 -0.48398012 4284698412
1.7850144 0.03344287 -0.46888471 4284368426
1.7399944 0.021930052 -0.45598495 4283054634
1.7400962 0.011253236 -0.45598495 4281542174
1.7170541 0.00057347654 -0.44939783 4280884764
1.7122175 -0.0099332044 -0.44802552 4280819742
1.7178934 -0.020509157 -0.44967228 4280557597
1.7215811 -0.031119948 -0.45077014 4280360988
1.7252029 -0.041776761 -0.451868 4280360473
1.7258753 -0.052391011 -0.45214245 4280031253
5.2791142 -0.19347821 -1.4671056 4278983707
5.17311 -0.22137749 -1.4371892 4287868330
5.154366 -0.25226751 -1.432249 4285435529
1.8767315 -0.10315271 -0.49578202 4290424480
5.2334247 -0.32056257 -1.4558527 4290301382
5.1440525 -0.34677604 -1.4308766 4284509807
5.1619668 -0.3798162 -1.4366403 4286943881
5.263062 -0.41974619 -1.4662822 4281940782
5.3121233 -0.45648131 -1.4811033 4281347358
5.3293304 -0.49092108 -1.486867 4285426270
5.3233466 -0.52332956 -1.4860436 4279703819
5.3525524 -0.55938381 -1.4953754 4282268468
5.3442411 -0.59168649 -1.4940031 4283190346
5.3586564 -0.62659013 -1.4992179 4280821541
5.3581929 -0.69328964 -1.5014135 4279703571
5.3462148 -0.72511941 -1.4992179 4278192392
5.3483291 -0.75885558 -1.501139 4278981138
5.3131337 -0.78714627 -1.4923563 4285822581
5.3395648 -0.82457751 -1.5014135 4278387457
4.916667 -0.79015708 -1.3806499 4291214522
4.8937054 -0.81729931 -1.3754351 4279633925
4.8497529 -0.8405751 -1.3641821 4278716416
4.8274679 -0.86725497 -1.3592418 4284242260
4.8636522 -0.90459931 -1.3713182 4282205763
5.0062609 -0.96295273 -1.4144088 4281612858
4.8927402 -0.97227806 -1.3831201 4279310099
5.212605 -1.0691555 -1.4780842 4291678924
5.1824274 -1.096143 -1.4712226 4292073430
5.0384326 -1.0980167 -1.431151 4293654517
4.9978232 -1.1213304 -1.4212704 4282864202
4.9065237 -1.1325048 -1.3965688 4284439637
5.0005274 -1.1865743 -1.4262108 4280821020
4.9856787 -1.2154121 -1.424015 4279967000
4.9753289 -1.2452803 -1.4231917 4278194447
4.9126444 -1.2616681 -1.4069983 4287411372
4.868546 -1.2822336 -1.3962942 4286821553
4.823452 -1.3020551 -1.3853158 4287149488
4.7773738 -1.3211157 -1.3740628 4287872441
4.729394 -1.339136 -1.3622609 4280035882
4.4190784 -1.2805843 -1.2725116 4282856236
4.4046841 -1.3057616 -1.2705903 4284365097
4.3892279 -1.3305312 -1.2683947 4284167975
4.3901658 -1.3602848 -1.2711393 4284298789
4.3789868 -1.3863258 -1.2703159 4284692517
4.3676529 -1.4122809 -1.2694925 4284626724
4.357079 -1.4384507 -1.2689435 4284495138
4.3554606 -1.4676152 -1.2711393 4284758825
4.3563762 -1.4977521 -1.2741584 4284430125
4.4142513 -1.5480076 -1.2944686 4283840811
4.4463191 -1.5899611 -1.3070939 4282329875
4.4247351 -1.6129311 -1.3035259 4284303138
4.4120507 -1.6390456 -1.3027025 4284500002
4.4171991 -1.6718745 -1.3073684 4284828189
4.4687648 -1.7228187 -1.3263063 4282987278
4.4876466 -1.7618048 -1.3353635 4283380761
4.4803228 -1.7907351 -1.3364614 4284036894
4.4977527 -1.8297902 -1.3452442 4283185959
4.1018758 1.6417074 -1.2737371 4287401098
4.0298152 1.5842236 -1.2474999 4293713368
2.6447272 1.0205854 -0.80260891 4293254357
2.6500432 1.0039986 -0.80232376 4282988323
4.030447 1.4994118 -1.2386591 4284829749
4.011663 1.4644566 -1.2298183 4284696872
4.0007234 1.4326994 -1.2235442 4285880905
3.1486077 1.1055318 -0.95204669 4280424973
3.9464164 1.3588251 -1.2010145 4287984464
3.9365184 1.3284502 -1.1953108 4285085969
3.951875 1.3066804 -1.1975923 4294169530
3.5987601 1.1653647 -1.0846584 4281407238
4.0169444 1.2737445 -1.2129923 4285089328
4.1217084 1.2792143 -1.2432221 4281603596
4.3404012 1.3180076 -1.308815 4293117624
4.364944 1.2962663 -1.3139484 4289632397
4.1031384 1.1910949 -1.2303888 4286608234
4.4137158 1.2520292 -1.3242151 4291074941
4.4185438 1.2241551 -1.3233596 4290874718
4.4056187 1.1915101 -1.3170855 4291664495
4.3998728 1.1610283 -1.3130928 4292320632
4.4189806 1.1371175 -1.3168002 4283246101
4.6824493 1.1743994 -1.3955117 4280688936
4.7687054 1.1649997 -1.4197526 4278190858
4.7906823 1.1392691 -1.4243156 4283650637
4.6397772 1.073307 -1.376119 4282335550
4.7145357 1.0601851 -1.3969377 4279046668
4.7293792 1.0330801 -1.3995043 4286019437
4.7496924 1.0070271 -1.4037821 4286215786
4.770803 0.98095691 -1.4083451 4285295714
4.7757921 0.95147783 -1.40806 4285033055
4.6846085 0.90343803 -1.3786857 4286152825
4.6976018 0.87608439 -1.3809673 4287206793
4.7302423 0.85217881 -1.3892376 4286677878
4.7627664 0.82790548 -1.397508 4291346603
4.7658658 0.79834896 -1.3969377 4289175694
4.7479658 0.76542449 -1.3900932 4287400573
4.7194233 0.73113322 -1.3801117 4285361758
4.6432385 0.69016355 -1.3558708 4282731075
1.907051 0.270814 -0.53225207 4279177753
1.910576 0.25936648 -0.53282243 4284831572
1.9140325 0.2478859 -0.53339285 4287004024
1.913615 0.23590124 -0.53282243 4283386439
1.9074112 0.22325903 -0.53054094 4283253312
1.9106503 0.21176349 -0.53111136 4285423450
1.909054 0.19973503 -0.53025579 4283648317
1.9016595 0.18716733 -0.5276891 4284697409
1.9027721 0.17549545 -0.5276891 4283448622
1.9009484 0.16356868 -0.52683353 4284172096
1.8980948 0.15159403 -0.52569282 4283777849
1.9028125 0.14022881 -0.52683353 4283185458
1.9026809 0.12848556 -0.52654833 4283251765
1.8938671 0.11621556 -0.52369648 4284303940
1.8955014 0.10464624 -0.52398169 4284303164
1.9047235 0.093441665 -0.52654833 4284237885
1.8976004 0.081419319 -0.52426684 4282198563
1.8760349 0.068950899 -0.51770759 4281146907
1.8524724 0.056690391 -0.51057792 4287855459
1.8575763 0.045442987 -0.51200384 4285616694
1.8022388 0.032990687 -0.49546304 4285024303
1.7257359 0.020948965 -0.47264811 4282921508
1.7095382 0.010250788 -0.46779993 4281672733
1.7153199 -0.00023579702 -0.46951106 4280621850
1.7037846 -0.010696497 -0.46608886 4280557340
1.7123125 -0.021251673 -0.4686555 4280557340
1.7255663 -0.031997502 -0.47264811 4280557597
1.7147974 -0.042331781 -0.46951106 4280164634
1.7911482 -0.055163059 -0.49232599 4279901209
1.8769819 -0.069280364 -0.51799273 4279440145
1.8889704 -0.081324227 -0.5217002 4279177224
1.8922652 -0.093099236 -0.52284092 4283385397
1.8993146 -0.10512725 -0.5251224 4283713334
1.9015039 -0.116954 -0.52597797 4286871149
1.9007505 -0.12861921 -0.52597797 4287265654
1.8941901 -0.13985963 -0.52426684 4283646523
1.8971181 -0.15178294 -0.52540761 4283711795
1.900926 -0.16382916 -0.52683353 4283975224
1.9037029 -0.17584023 -0.52797431 4283713596
1.8978184 -0.18705069 -0.52654833 4280097299
1.9223746 -0.20137246 -0.53424841 4280294680
1.9306297 -0.2142154 -0.53710026 4279243277
1.9207107 -0.22505875 -0.53453356 4279639834
5.1186085 -0.62966627 -1.4936159 4294308326
5.1060939 -0.65995783 -1.4910493 4280360988
5.1418405 -0.69667166 -1.5030271 4282599499
5.2124414 -0.73881793 -1.5255568 4280758325
5.2466846 -0.77653193 -1.5372494 4280824369
4.7416487 -0.73165661 -1.3866709 4283848019
4.9301324 -0.79169303 -1.444849 4281739040
4.8495469 -0.80932492 -1.4220341 4285686357
4.8520455 -0.84037268 -1.4243156 4283120693
4.8515148 -0.87097418 -1.4257416 4281279522
4.8441944 -0.90037632 -1.4251711 4279374865
5.2141509 -1.0021834 -1.5389606 4289049259
4.9850864 -0.98996323 -1.4713714 4281351475
5.1113167 -1.0476387 -1.5115827 4281417522
5.0232034 -1.0617553 -1.4867715 4291219915
5.0109749 -1.0913347 -1.4850603 4280693298
5.007925 -1.1228988 -1.486201 4278324489
4.9701195 -1.1465033 -1.47679 4282467387
4.8128333 -1.1414043 -1.4308748 4283650373
4.9631257 -1.2092212 -1.4790714 4278979848
4.9053993 -1.227103 -1.4636713 4282866264
4.8782811 -1.2521791 -1.4576824 4286816412
4.8148885 -1.2674617 -1.4405712 4286950051
4.7848105 -1.2909943 -1.4337268 4287739305
4.7232132 -1.3055314 -1.4171859 4287476911
4.6911335 -1.3277072 -1.4097711 4281290323
4.5337467 -1.3133013 -1.3635708 4282205765
4.312386 -1.277969 -1.2974076 4283908406
4.3026285 -1.3038497 -1.2968372 4284430375
4.2927165 -1.329659 -1.2962668 4286799685
4.2799077 -1.3545287 -1.2948409 4284232471
4.2833729 -1.3845936 -1.2985483 4283836433
4.2584119 -1.405447 -1.293415 4285349671
4.2624254 -1.4358301 -1.2974076 4284758564
4.259881 -1.4641359 -1.2994039 4284758823
4.2535305 -1.491197 -1.3002595 4285022767
4.2118063 -1.5056615 -1.2899927 4283971619
4.4249425 -1.6124773 -1.3604338 4283251226
4.4113712 -1.6382641 -1.3592931 4283251996
4.4057188 -1.6669958 -1.360719 4283777823
4.4285011 -1.7067424 -1.3712709 4284697645
4.4946837 -1.7639782 -1.3957969 4282461201
4.4873362 -1.7929455 -1.3969377 4282461201
4.4869056 -1.8247759 -1.4003599 4281938717
4.0031323 1.6303731 -1.3002319 4286678917
4.0059667 1.6029418 -1.297861 4289699219
2.6236918 1.0313532 -0.83373779 4291936955
2.6477914 1.0221117 -0.83966529 4281476383
4.0026402 1.516753 -1.2871915 4283247378
3.9993389 1.4875045 -1.2830422 4286274901
2.6652594 0.97287399 -0.83936894 4283776029
3.9282701 1.406451 -1.2537011 4279043072
3.2420278 1.1384319 -1.0251961 4288185452
3.9371059 1.3553421 -1.2510337 4282065925
3.943538 1.3305485 -1.250441 4293252793
3.4301977 1.134006 -1.0800254 4281277962
3.9677467 1.2847021 -1.2531084 4284099612
4.1439872 1.3137116 -1.3079377 4280617989
4.2805896 1.328155 -1.3497266 4292985517
4.3005395 1.3054701 -1.3535794 4290351982
4.2846632 1.271993 -1.3458737 4282525721
4.1612201 1.2076257 -1.3034921 4294435800
4.2935176 1.2174946 -1.3437991 4291468157
4.3156347 1.1952044 -1.348541 4291730802
4.2952271 1.1612264 -1.3396498 4291930755
4.3216648 1.1399633 -1.3458737 4281471744
4.6153226 1.1871564 -1.4377499 4286015848
4.6595769 1.1681015 -1.4496049 4282072898
4.7241821 1.1535305 -1.4679801 4279245591
4.7776313 1.1355606 -1.4827989 4279245337
4.7333293 1.0943953 -1.4664983 4278256902
4.6327934 1.0412552 -1.4324151 4285558120
4.5355201 0.99020553 -1.3995175 4284176465
4.5069394 0.95503491 -1.3885517 4285294948
4.5613627 0.93735582 -1.4039632 4284702556
4.7281408 0.94141561 -1.4549396 4283389269
4.6044083 0.88745326 -1.41404 4282405981
4.6013169 0.85761017 -1.4113725 4283263349
4.6356316 0.83460468 -1.4205601 4289777109
4.6463113 0.80712551 -1.4223384 4289315780
4.65306 0.77891636 -1.4229312 4286418835
4.6087198 0.7424562 -1.4075197 4286217857
4.6160197 0.7146017 -1.4084088 4284045657
4.6259861 0.68710637 -1.410187 4287927947
4.6083674 0.6556167 -1.4033704 4286679168
4.6908522 0.6380049 -1.4279696 4279377175
5.0801644 0.65920144 -1.5485941 4280757038
5.0642085 0.6255604 -1.5423702 4280227871
4.8564186 0.56967854 -1.4762787 4287331708
4.7250304 0.52490634 -1.4341934 4280422153
4.6825686 0.49112591 -1.4199674 4280291855
1.8939855 0.18713795 -0.54951429 4285491815
4.6349859 0.42870516 -1.4033704 4279440149
4.6755905 0.40353921 -1.4152254 4279636499
4.6846428 0.37537616 -1.4173 4279176975
4.6678085 0.34521744 -1.4113725 4279045902
4.6688857 0.31650525 -1.4110762 4278848523
4.6783662 0.2883209 -1.4134471 4279176975
4.6895833 0.26013777 -1.4164109 4279833878
4.9410176 0.24366353 -1.4940611 4279112473
4.971045 0.21457484 -1.5029523 4288193445
4.9207292 0.18216513 -1.4869481 4286875249
1.8354709 0.056915987 -0.528768 4286874744
1.8768413 0.046665013 -0.54151213 4283646249
1.8026094 0.03376871 -0.51839489 4283444503
1.7636278 0.022222672 -0.50624353 4283578409
1.745585 0.011287513 -0.50061244 4280423433
1.7141041 0.00057315477 -0.49083206 4280623130
1.7369965 -0.010082545 -0.49794504 4280359958
1.7254419 -0.020600973 -0.49438855 4280688409
1.7185987 -0.031065371 -0.49231395 4280688409
1.7193305 -0.041633241 -0.49261031 4280491030
1.7285889 -0.052473996 -0.49557409 4280097564
4.9389315 -0.1809857 -1.4925792 4289179320
4.9329572 -0.21108247 -1.4910973 4286417038
4.9372921 -0.24162711 -1.4928757 4293850095
4.9357171 -0.27191722 -1.4928757 4281741111
4.9358621 -0.30231401 -1.4934684 4284110710
1.826494 -0.12287983 -0.52698976 4279639064
4.9232082 -0.36223048 -1.490801 4281879377
4.940886 -0.39402789 -1.4970249 4278523421
4.9193435 -0.42270038 -1.4910973 4285035381
4.9527969 -0.45620865 -1.5023596 4282401341
4.9812708 -0.48967564 -1.51214 4278783747
4.9819717 -0.52062827 -1.5133255 4283717719
4.8960977 -0.54203784 -1.4875408 4285691770
4.8812957 -0.5707376 -1.4839844 4286415743
4.9336286 -0.60756958 -1.5014706 4289769636
4.9913735 -0.64580071 -1.5207349 4286150253
5.0743856 -0.68823069 -1.5480014 4280822311
5.0615568 -0.71814549 -1.545334 4278720022
5.0069833 -0.74176717 -1.5296261 4278785824
4.977797 -0.76868403 -1.5219203 4284639083
4.8777475 -0.78389925 -1.4919865 4285886573
4.8577743 -0.81129539 -1.4872445 4278715397
4.8950505 -0.84842986 -1.5005814 4280493097
4.8869324 -0.87794256 -1.4996922 4280690475
4.8767591 -0.90703803 -1.4982104 4280626480
4.8823562 -0.93910986 -1.5017669 4280299055
4.9935942 -0.99232769 -1.5388137 4283916900
5.0079942 -1.0271724 -1.545334 4279442459
5.0128102 -1.0602541 -1.5488905 4279705890
5.0118093 -1.0922127 -1.5506687 4279114781
5.0134001 -1.1248264 -1.5533361 4278720025
4.9812784 -1.1497655 -1.545334 4279309849
4.9601903 -1.1769997 -1.5408884 4279309840
4.7830729 -1.1660047 -1.4866518 4279507229
4.8962703 -1.2254863 -1.5251805 4285759371
4.8359313 -1.2419604 -1.5082871 4278391317
4.7986665 -1.2638237 -1.4988031 4288196258
4.7474852 -1.2815421 -1.4848735 4288197285
4.7017918 -1.3002081 -1.4727222 4278921773
4.6450224 -1.315239 -1.4570143 4280831840
4.5735703 -1.3253679 -1.4365644 4280567124
4.5177379 -1.3392864 -1.4211529 4281155654
4.2178764 -1.2785728 -1.3266094 4289956221
4.1990047 -1.3010362 -1.3230528 4290743907
4.1909428 -1.3267764 -1.3230528 4290022231
4.182723 -1.3524666 -1.3230528 4290938715
4.1834145 -1.3811007 -1.3260165 4290479446
4.1766715 -1.4073536 -1.3266094 4290612058
4.1679573 -1.4329548 -1.3266094 4289559119
4.156383 -1.4575535 -1.3257202 4290349152
4.1428652 -1.4814209 -1.3242383 4288178509
4.1570263 -1.5153196 -1.3319441 4283970588
4.3866854 -1.6296202 -1.4110762 4283380242
4.4301958 -1.6767949 -1.4288586 4282921750
4.4679441 -1.7225025 -1.444863 4282789394
4.518631 -1.773972 -1.4653127 4282986775
4.5076609 -1.8016645 -1.4653127 4283380507
4.5186372 -1.8382884 -1.4727222 4283250977
4.4490337 -1.8418635 -1.4531614 4281151519
3.9854553 1.6521089 -1.3489015 4291021756
3.9602625 1.6132507 -1.3366338 4288452483
2.5413582 1.0166563 -0.84071255 4291147692
2.5386913 0.99755889 -0.83764565 4280685316
3.967978 1.531849 -1.3292732 4286537028
3.9897616 1.5121993 -1.3335669 4284759350
3.9302824 1.4621172 -1.3099517 4284697936
2.7054493 0.98721749 -0.88671637 4283450951
3.1388454 1.1237841 -1.0330086 4280225287
3.9439578 1.3851069 -1.305658 4281541398
3.9685802 1.3664634 -1.3111784 4283055664
3.3195109 1.120036 -1.0875998 4280619523
4.1142654 1.3604254 -1.3550354 4283379488
4.1451712 1.3424927 -1.3627027 4281142530
4.1778255 1.3248076 -1.3709834 4291536791
4.194056 1.3016895 -1.3737437 4291403387
4.1801081 1.2692877 -1.366383 4290221677
4.1385503 1.2289704 -1.3498216 4280814082
4.1533251 1.2056783 -1.3522751 4292787630
4.1899443 1.1884907 -1.3620893 4288048471
4.2219224 1.1696271 -1.37037 4290812798
4.2326946 1.1446947 -1.3715968 4294106311
4.3923988 1.1590542 -1.4225076 4279175684
3.0021029 0.77213067 -0.95756221 4287464321
4.6518517 1.1667173 -1.5040878 4279575082
4.714397 1.1517183 -1.5224893 4279246369
4.742671 1.1278394 -1.5295433 4279442718
4.7142663 1.0905577 -1.5178889 4279375894
4.6345119 1.0421693 -1.4893665 4281348134
4.5097127 0.9850409 -1.446123 4287794554
4.4793611 0.94964331 -1.434162 4289965463
4.4767132 0.92041332 -1.4314017 4288518524
4.4850764 0.89348608 -1.4323218 4287992431
4.5035582 0.86847579 -1.4366155 4287728748
4.52003 0.84292293 -1.4402958 4294308048
4.5063825 0.81179297 -1.434162 4293980112
4.466269 0.77629179 -1.4194407 4286347875
4.463439 0.74761283 -1.4169872 4287463793
4.463244 0.71945304 -1.4154538 4287200110
4.4732175 0.69292927 -1.4172939 4287727990
4.5009212 0.66897339 -1.4249612 4287730304
4.5219016 0.64376271 -1.4304817 4285428060
4.5634894 0.62114912 -1.4427494 4289046938
5.0391412 0.65454662 -1.5960954 4278191105
5.0270042 0.6216253 -1.5908817 4279899669
4.9617181 0.58264875 -1.5684931 4284305228
4.7656035 0.52994829 -1.5037811 4279503368
1.8996785 0.19874832 -0.57419693 4288645765
4.7196536 0.46626747 -1.4869131 4279833878
4.6124887 0.42709184 -1.4513367 4279636499
4.6501079 0.40182278 -1.4626844 4279504400
4.7644372 0.38229313 -1.4988741 4279241741
4.8321877 0.35791898 -1.5200357 4279110669
4.8390412 0.32858604 -1.5215693 4279045389
4.6927681 0.28970221 -1.4737253 4278914316
4.825603 0.26822388 -1.5160488 4279046418
4.8271575 0.23860948 -1.5160488 4279442726
4.8504019 0.20993802 -1.5231028 4281679688
4.8211622 0.17903489 -1.5132886 4282402877
1.8111637 0.055400096 -0.54260767 4280560673
1.8057604 0.044142693 -0.54076755 4284108090
1.7755448 0.032484688 -0.53095341 4284828207
1.7414485 0.021150369 -0.51991248 4283974448
1.7463044 0.010496439 -0.52144599 4281215002
1.7130225 -0.00023705006 -0.51071167 4280492057
1.7234585 -0.010806487 -0.51408529 4280492059
1.7090837 -0.021213809 -0.50948489 4280755231
1.7060664 -0.03164915 -0.50856483 4280689436
1.7115493 -0.042253818 -0.51040506 4280229401
1.7112578 -0.05275489 -0.51040506 4280228375
4.8136597 -0.17584077 -1.5108351 4285036153
4.8410192 -0.20658404 -1.5200357 4278327585
4.8368082 -0.23614554 -1.5191157 4289711052
4.8428712 -0.26623535 -1.5215693 4287411118
4.8430467 -0.29606128 -1.5221826 4287016362
4.8249946 -0.32468963 -1.5169688 4287605928
1.8555002 -0.13702691 -0.558249 4288127905
4.8434186 -0.38568306 -1.5243294 4287871669
4.8229423 -0.41385269 -1.5185024 4287872182
4.82126 -0.44352487 -1.518809 4287803819
4.7957129 -0.47087261 -1.5114484 4284708468
4.8078809 -0.50186712 -1.5163555 4282933346
4.8132253 -0.53229779 -1.5191157 4288923338
4.8070326 -0.56149054 -1.5181956 4288660934
4.795939 -0.59004742 -1.5157421 4288657846
4.8790751 -0.6306684 -1.5439578 4290824377
4.9467978 -0.67029011 -1.5672663 4282204467
4.9576707 -0.70276433 -1.5721735 4283392876
4.9485574 -0.7324751 -1.57064 4278919720
4.8508396 -0.74847794 -1.5402775 4279904810
4.8245401 -0.77476215 -1.5332235 4284178521
4.8365951 -0.80716658 -1.538744 4278192133
4.8718805 -0.84380317 -1.5519317 4279707179
4.8684845 -0.87401658 -1.5525452 4279838506
4.8658381 -0.90439367 -1.5534652 4279837736
4.8517842 -0.93261784 -1.550705 4279176724
4.5817556 -0.9099645 -1.4639111 4284636513
4.5816808 -0.93920594 -1.4657513 4286479485
4.5739689 -0.96690762 -1.4651378 4278979594
4.5744605 -0.99637115 -1.4672847 4281216556
4.5794063 -1.0269171 -1.470965 4283323215
4.5795116 -1.0564927 -1.4731119 4288257687
4.8081908 -1.1403042 -1.5510117 4288521373
4.8861856 -1.1904942 -1.5792273 4284969582
4.8095336 -1.2031454 -1.5562254 4278456584
4.7919188 -1.2300328 -1.5528518 4286680196
4.7539043 -1.2514235 -1.542731 4278916372
4.7102952 -1.2709081 -1.5307701 4280959818
4.6666269 -1.2899051 -1.518809 4281160283
4.6027546 -1.3027167 -1.5001009 4280372833
4.5279312 -1.3116183 -1.4777123 4280504930
4.4951568 -1.3320811 -1.4694315 4281096039
4.3311219 -1.312476 -1.4169872 4284843394
4.1120377 -1.2737458 -1.3458346 4289437059
4.1041451 -1.2989527 -1.3458346 4290152032
4.096097 -1.3241109 -1.3458346 4290676576
4.0770483 -1.3456424 -1.3421543 4290087256
4.0678129 -1.3703296 -1.3418477 4290414426
4.0602283 -1.3955727 -1.3421543 4290612058
4.0659614 -1.4254941 -1.3470614 4290414418
4.066998 -1.4539373 -1.350435 4290019660
4.0615778 -1.4801673 -1.3516618 4290152022
4.051527 -1.5047295 -1.3513551 4290350179
4.3458095 -1.6443452 -1.4559371 4287984462
4.4138017 -1.7010814 -1.482926 4284302627
4.4945493 -1.7639257 -1.5145153 4283250198
4.4986687 -1.7974703 -1.5197291 4283118613
4.5007815 -1.8304151 -1.5243294 4283314974
4.5088158 -1.8659997 -1.5310767 4282135851
2.6803794 -1.1291169 -0.89591706 4281284394
2.6655254 -1.1421714 -0.89315689 4285428074
2.668067 -1.1626841 -0.89653051 4281413676
2.5000477 1.0000186 -0.86103439 4282527002
3.9914448 1.5679891 -1.3958937 4286205491
3.987721 1.5383508 -1.3911268 4288646269
2.6510396 1.0041932 -0.90870458 4293905606
3.9289763 1.4605637 -1.3634781 4283054377
3.077374 1.1226348 -1.0564821 4280885281
3.9260705 1.4048936 -1.3561686 4290228895
3.9426689 1.3836023 -1.3590288 4286741095
4.062676 1.3699466 -1.395576 4281145363
4.0890121 1.3509399 -1.401932 4280161299
4.0990281 1.3264084 -1.4025676 4279436035
4.0899158 1.2957928 -1.3965293 4282854953
4.1086574 1.274042 -1.4003429 4283116067
4.1182122 1.2493579 -1.4009786 4281471244
4.1185284 1.2219089 -1.3984362 4284433215
4.1131992 1.1929187 -1.3939869 4287460196
4.1094942 1.1645571 -1.3901733 4285814599
2.9221895 0.80887628 -0.97480714 4288576357
4.2571187 1.1501329 -1.4365723 4281610287
4.4603038 1.1756908 -1.5045817 4279770917
4.551002 1.1697735 -1.5335016 4279639846
4.6022415 1.1528825 -1.5487561 4279573792
4.6580501 1.1365297 -1.5655996 4279311132
4.7202873 1.1210681 -1.5846677 4279310871
4.7437062 1.0959244 -1.5903881 4279574045
4.7743945 1.0721965 -1.5986509 4278651912
4.5187154 0.98571485 -1.5087131 4284573014
4.4894295 0.95051008 -1.4966367 4285362009
4.4961061 0.92313617 -1.4969546 4286149980
4.5100555 0.8971954 -1.4998147 4290424723
4.5191994 0.87022221 -1.5010859 4291212430
4.511404 0.84004766 -1.4966367 4287199827
4.4894109 0.80748516 -1.4874204 4294965458
4.468123 0.77538639 -1.4785221 4287070557
4.4606395 0.745924 -1.4743906 4287136352
4.4632597 0.71823889 -1.473755 4287858794
4.4713311 0.69141853 -1.4750262 4290029447
4.5233221 0.67106205 -1.4912341 4291280541
4.5395584 0.64502788 -1.4953655 4286545513
4.9286423 0.6694538 -1.625664 4281417787
4.9147916 0.63688594 -1.6196258 4283588190
4.9054322 0.60509324 -1.6151766 4285557089
4.9062276 0.57465208 -1.6142231 4279769110
4.9172001 0.54537278 -1.6167655 4279374354
4.8120079 0.50384498 -1.5802184 4279306769
4.8310499 0.47588843 -1.585621 4279241739
4.7659001 0.4399668 -1.5627394 4279111691
4.748672 0.40900847 -1.5560656 4278849552
4.7284088 0.3780517 -1.5484383 4278849552
4.73915 0.34965882 -1.5512985 4278916115
4.7440443 0.32076502 -1.5522519 4279112470
4.7345662 0.2909531 -1.5484383 4279178264
4.7277422 0.26142645 -1.5455781 4279508771
4.7349391 0.23269141 -1.5474849 4280036146
4.7268047 0.20322748 -1.5443069 4281155141
4.70996 0.17355862 -1.5382687 4278387968
1.8336796 0.056543227 -0.57342434 4281414437
1.8302004 0.045198087 -0.57215309 4284633409
1.7896794 0.033219554 -0.55848765 4285355575
1.7642511 0.021925181 -0.54990703 4283908144
1.7444416 0.010978656 -0.54323322 4281476381
1.725513 0.00027599829 -0.53687716 4280753949
1.723586 -0.010299796 -0.53624159 4280819742
1.7149574 -0.020770049 -0.53338134 4280885535
1.7157457 -0.031309955 -0.53369915 4280753949
1.7240522 -0.04204696 -0.5365594 4280557340
1.7190232 -0.052479021 -0.5349704 4280163611
4.7260737 -0.17399216 -1.5436713 4292867060
4.7268119 -0.20306908 -1.5443069 4287805108
4.7197943 -0.23178892 -1.5424001 4287541677
4.7126036 -0.26043028 -1.5404932 4287673260
4.7156487 -0.28963238 -1.5420823 4287344549
4.7185125 -0.31888166 -1.5436713 4287673260
4.7038479 -0.37592933 -1.5401754 4287543219
1.7956913 -0.15436371 -0.56261909 4278192903
4.6847181 -0.43231633 -1.5354085 4287607476
4.7055669 -0.46337807 -1.5433534 4287606441
4.6998062 -0.4919458 -1.5424001 4287275933
4.6901026 -0.520042 -1.5401754 4283853670
4.6858816 -0.5486998 -1.5398576 4289251012
4.6673703 -0.57558346 -1.5347729 4288661189
4.7107654 -0.61030596 -1.5506629 4281748040
4.7708192 -0.64788043 -1.5722734 4284901475
4.8549943 -0.68968362 -1.6021467 4278521616
4.8300376 -0.71639824 -1.5951551 4291813333
4.7974405 -0.74167323 -1.585621 4290430650
4.7675242 -0.76702732 -1.5770404 4284442198
4.8319306 -0.8078413 -1.6005577 4281020711
4.8306193 -0.8381229 -1.6018289 4279835934
4.8263192 -0.86791515 -1.6021467 4279771683
4.81531 -0.89647084 -1.6002399 4279111172
4.5266814 -0.87148458 -1.5036284 4291146914
4.528688 -0.90072364 -1.5061707 4282726697
4.5407228 -0.93211824 -1.5122089 4293913821
4.5182214 -0.9564262 -1.5064886 4292135349
4.5122676 -0.98413146 -1.5064886 4290423704
4.5089197 -1.012423 -1.507442 4290293917
4.4915366 -1.0375086 -1.5036284 4288056953
4.480474 -1.0639528 -1.5020393 4289045388
4.7133536 -1.1498715 -1.5846677 4286481530
4.7807069 -1.1974363 -1.6104095 4286283900
4.6988878 -1.207625 -1.5846677 4283716433
4.7106433 -1.24151 -1.5913415 4279309337
4.6782227 -1.2637126 -1.5827608 4279576109
4.6320009 -1.2817701 -1.5694132 4278197803
4.5820866 -1.2982743 -1.5547943 4288400080
4.5066485 -1.3068186 -1.5312771 4279320646
4.3921938 -1.3028888 -1.4940943 4283463037
4.2353177 -1.2846658 -1.4419749 4288723906
4.2246385 -1.3097864 -1.4410216 4279706148
4.0276146 -1.2758244 -1.374601 4290751376
4.0088854 -1.2970101 -1.3707875 4290874205
3.9999514 -1.3212861 -1.3704697 4291069273
3.9854796 -1.3436835 -1.368245 4290675798
3.9708841 -1.3659531 -1.3660204 4290611292
3.9624276 -1.3902924 -1.3660204 4290611807
3.9547153 -1.4148986 -1.3663383 4289889113
3.9521942 -1.4414124 -1.3685628 4290480217
3.9530516 -1.46927 -1.3720586 4290677079
3.9439619 -1.4934978 -1.3720586 4290546780
3.9586079 -1.5268843 -1.3806393 4289562981
4.491014 -1.7640291 -1.5757692 4283841571
4.4959517 -1.7978905 -1.5814897 4281672974
4.5146933 -1.8375989 -1.5922948 4282725670
2.7347598 -1.1522731 -0.9531967 4280889385
2.6962664 -1.155581 -0.94175589 4278653452
2.6908634 -1.1728612 -0.94239146 4281216548
2.4163592 1.0185846 -0.86895263 4293257690
2.4199462 1.002653 -0.8679685 4284438338
2.4339256 0.99099523 -0.8709209 4281737225
3.9561791 1.5833499 -1.4381062 4283379231
3.9807639 1.5649251 -1.4436829 4281012482
3.9506383 1.5251495 -1.428921 4293383601
3.9219422 1.4864731 -1.4148152 4288974706
2.657057 0.98805571 -0.9427622 4282263054
2.6639571 0.97205788 -0.9430902 4280556821
3.1180625 1.116335 -1.1084236 4287135861
3.0945523 1.0865307 -1.0972701 4280226306
3.9835563 1.3716247 -1.421376 4280754719
3.9883173 1.3459469 -1.4200639 4280228636
3.9965007 1.3214498 -1.4200639 4279175946
4.0027366 1.2963203 -1.4194077 4290623417
4.0097151 1.2714497 -1.4190798 4291674046
4.0156364 1.2462622 -1.4184237 4282527269
4.0006123 1.2147313 -1.4102225 4280223234
2.8045743 0.8324433 -0.97425425 4287066218
4.0097747 1.1639646 -1.4082544 4281343514
4.0241113 1.1414033 -1.4108787 4281607454
4.2258444 1.1707149 -1.4810797 4280425500
4.2748928 1.1561189 -1.4961697 4280822839
4.2819061 1.129867 -1.4961697 4279509802
4.5275207 1.1650776 -1.5817888 4279442980
4.5748982 1.1473968 -1.5962226 4279310881
4.6258984 1.1300757 -1.6119686 4279244573
4.6695046 1.1104214 -1.6250904 4279113240
4.7139621 1.0904872 -1.6385401 4279244826
4.7371535 1.065277 -1.6444448 4278191111
4.4953532 0.98190057 -1.5562015 4282598975
4.4911289 0.95214146 -1.552593 4284769880
4.483933 0.92189968 -1.5480003 4285427032
4.4867258 0.89381504 -1.5470163 4285427284
4.4949083 0.86680555 -1.5480003 4286215769
4.479713 0.83539385 -1.5407834 4286543445
4.4717393 0.80554307 -1.5361909 4286345807
4.4412327 0.77193344 -1.5237253 4287331421
4.4477487 0.74498069 -1.5243814 4283778861
4.4606295 0.71903092 -1.5273337 4289502851
4.5097647 0.69860035 -1.5430797 4290950034
4.5242443 0.67244613 -1.5466882 4287925102
4.6863341 0.66721529 -1.6021274 4282797122
4.8101478 0.65478623 -1.6441168 4280561710
4.7925296 0.62245578 -1.6365719 4285889403
4.8215709 0.5961737 -1.645429 4280427555
4.7632174 0.55929184 -1.6237782 4287340456
4.8482399 0.53915799 -1.6523179 4279444005
4.7913303 0.50307178 -1.6313232 4285892751
4.7435632 0.46863556 -1.6136088 4290959069
4.637238 0.42938983 -1.5755559 4288195242
4.6322565 0.40027565 -1.5729316 4278193164
4.6261506 0.37116307 -1.5699792 4279641386
4.6302247 0.34291056 -1.5706353 4279378730
4.6454363 0.31539273 -1.5752279 4279378994
4.6397414 0.28641537 -1.5726036 4279246896
4.6225476 0.25688797 -1.5660428 4279511869
4.6296978 0.22880094 -1.5680109 4279841602
4.6017575 0.19911595 -1.5578417 4281351240
1.8331857 0.067349277 -0.59536529 4293917691
1.8203456 0.055686899 -0.59077269 4288123768
1.8045988 0.044113547 -0.58519596 4285092927
1.744388 0.031894099 -0.56420124 4284830525
1.7398279 0.021129595 -0.56256104 4283843893
1.7153641 0.010289714 -0.55403191 4281410590
1.7040589 -0.00024193898 -0.55009544 4280820511
1.7049701 -0.010703125 -0.55042344 4280886304
1.7001493 -0.021109037 -0.54878324 4280885534
1.6971543 -0.031489938 -0.54779911 4280753948
1.6959847 -0.04188022 -0.54747111 4280425754
4.6067677 -0.16833347 -1.5591538 4292604137
4.6131983 -0.19691727 -1.5617782 4286621853
4.6034117 -0.2248071 -1.5588259 4287081123
4.7264547 -0.25986356 -1.6021274 4287081123
4.6040783 -0.28151077 -1.560138 4287212710
4.5994363 -0.30956593 -1.5591538 4287344296
4.5974503 -0.33778176 -1.5591538 4287213992
4.6009412 -0.36643335 -1.5611221 4287016873
4.6004887 -0.39481837 -1.5617782 4286621863
1.7673775 -0.16333245 -0.57469863 4282143060
4.588716 -0.45059916 -1.5594819 4287017653
4.6018376 -0.48040992 -1.5650586 4286555819
4.5809631 -0.50666857 -1.5588259 4286817186
4.5880895 -0.53597045 -1.5624343 4282408794
4.5903401 -0.56480306 -1.5644025 4290172368
4.5989676 -0.59452963 -1.5686671 4293196535
4.6748052 -0.6335001 -1.5965507 4279244049
4.7119851 -0.66799623 -1.6109846 4280691752
4.7358332 -0.7010389 -1.6208258 4280691744
4.735177 -0.7306596 -1.622138 4287136362
4.7278061 -0.75925159 -1.6211538 4286279012
4.7258544 -0.7887125 -1.622138 4290227117
4.7441969 -0.82171977 -1.630339 4292269523
4.7186089 -0.84714669 -1.6231221 4293586145
4.6761703 -0.86918741 -1.6100004 4290556319
4.5501451 -0.8747105 -1.5673549 4281869070
4.5215273 -0.89801848 -1.5591538 4280553988
4.5150061 -0.92555565 -1.5588259 4279570696
4.5064692 -0.95265633 -1.5578417 4279373065
4.4968467 -0.97948623 -1.5565295 4278846979
4.4916739 -1.0072664 -1.5568576 4282203451
4.4881706 -1.0354443 -1.5578417 4281874997
4.499198 -1.0671014 -1.5640745 4281611565
4.7468147 -1.1565715 -1.6549423 4280888357
4.7377958 -1.1852175 -1.6542861 4280232997
4.6700401 -1.1987786 -1.6326354 4279178256
4.4817042 -1.1798387 -1.567683 4291611600
4.6358237 -1.2508339 -1.6257465 4281809722
4.5870852 -1.2679397 -1.6109846 4285368978
4.5374041 -1.2842379 -1.5958946 4283269251
4.3924174 -1.2724 -1.5463601 4284453005
4.2296357 -1.2534696 -1.4902649 4291158752
4.2263861 -1.2807671 -1.4919051 4279447355
4.2319841 -1.3108647 -1.4968258 4280039753
4.2238612 -1.336807 -1.4968258 4278324750
3.960279 -1.280247 -1.4036617 4289962638
3.9254348 -1.2956476 -1.3938205 4289691746
3.9120388 -1.3179013 -1.3918523 4290415453
3.8994117 -1.3403461 -1.3902121 4289628784
3.8813069 -1.3608121 -1.3866036 4294894807
3.8871179 -1.3896859 -1.3918523 4288379748
3.8802931 -1.414157 -1.3925083 4291269749
3.8741999 -1.4389254 -1.3934925 4290018898
3.8652978 -1.4626698 -1.3934925 4290544470
3.8588951 -1.4873779 -1.3944765 4290940518
3.8470576 -1.509993 -1.3934925 4290680434
4.5009713 -1.7983898 -1.6414925 4287063872
4.4924774 -1.8270403 -1.6424766 4283645475
4.4838014 -1.8556544 -1.6434608 4280887581
2.6768839 -1.147033 -0.96966159 4280958517
2.6429446 -1.1517481 -0.95949233 4284178003
2.6591508 -1.1782665 -0.96834946 4281412900
2.2785866 0.9769972 -0.85070157 4292988859
2.2940762 0.96701628 -0.8544277 4292721570
2.3077898 0.95616192 -0.85747635 4293247403
2.2970555 0.93524498 -0.8510403 4288905065
3.9897425 1.5956467 -1.5051433 4280949528
3.9863217 1.565977 -1.5000621 4282724656
3.9563518 1.5262526 -1.4848189 4282000925
3.9418843 1.4929527 -1.4756731 4292662735
2.6959622 1.0023313 -0.99364901 4282857774
3.017628 1.1008475 -1.1145784 4285358170
3.1102583 1.1130517 -1.147436 4281213460
3.905422 1.3705349 -1.4482353 4280752650
2.7491095 0.94596583 -1.0048274 4286872438
2.7254398 0.9191615 -0.99364901 4292334033
2.7399623 0.90537202 -0.99703634 4290689208
2.7472565 0.88912201 -0.9977138 4289965485
3.9321704 1.2458305 -1.4431542 4282000409
3.9397404 1.2216797 -1.4431542 4282065687
3.9435611 1.1963906 -1.4417993 4282065687
3.9544358 1.1732411 -1.4431542 4282327578
3.9733081 1.1523609 -1.4475578 4281737753
4.0889344 1.158733 -1.4882064 4280360471
4.2954674 1.1888168 -1.5627286 4279377438
4.2881474 1.1585127 -1.5573089 4279246117
4.2933555 1.1316999 -1.5566314 4280036663
4.3111539 1.1081449 -1.5606962 4279180837
4.5378323 1.1367532 -1.6423321 4279179808
4.595911 1.1213735 -1.6613014 4279375642
4.6493921 1.1042366 -1.6785771 4279243797
4.6955004 1.0847915 -1.6931428 4278980625
4.7286911 1.0619367 -1.7029662 4278520076
4.4924278 0.97998279 -1.6135393 4281283632
4.4735031 0.94713956 -1.6043935 4283980624
4.4727793 0.91834879 -1.6020223 4283717703
4.4792523 0.89107049 -1.602361 4284704592
4.4901791 0.86463654 -1.6043935 4284637255
4.4648747 0.83138776 -1.5932151 4285228616
4.4587798 0.80197847 -1.5891502 4285689168
4.4543467 0.77299684 -1.5857629 4285556817
4.457149 0.7453407 -1.5850854 4286083933
4.4904361 0.72260976 -1.5955863 4287070828
4.5542951 0.70424032 -1.6172655 4289634186
4.615304 0.68470013 -1.6379285 4280032785
4.6939411 0.66695082 -1.6650275 4279310101
4.7147269 0.64041489 -1.6711248 4286413178
4.6999059 0.60905701 -1.66435 4281150254
4.7203631 0.58227944 -1.6704473 4278653988
4.6761875 0.54772651 -1.6531717 4284906368
4.7028394 0.52161479 -1.6616402 4284379760
4.6498046 0.48687461 -1.6413158 4291552227
4.5880961 0.45197561 -1.6179429 4286488738
4.5148935 0.41681558 -1.5905052 4286160024
4.5192413 0.38926619 -1.5911827 4286159254
4.5262337 0.36190388 -1.5928763 4289383630
4.5293078 0.33419377 -1.5932151 4282803562
4.535028 0.30664971 -1.59457 4281421909
4.5358853 0.27875993 -1.5942312 4279580732
4.5328131 0.25066364 -1.5925376 4280439131
4.5295668 0.22261558 -1.5908439 4280897372
4.5270877 0.19465713 -1.589489 4283261031
1.8315727 0.067729972 -0.61798865 4281417795
1.8338346 0.056547981 -0.61866611 4287861122
1.8285035 0.045156542 -0.61663371 4284104994
1.7892357 0.033211417 -0.60240668 4284563762
1.7583591 0.021853257 -0.59122837 4284237358
1.7415247 0.010960949 -0.58513105 4282133032
1.7246232 0.00027605653 -0.57903379 4281148193
1.715184 -0.010247691 -0.5756464 4281017120
1.6943908 -0.020516301 -0.56819415 4280821024
1.6895295 -0.030825602 -0.56650048 4280426780
1.6817837 -0.041006561 -0.56379056 4280294676
1.6843218 -0.051411793 -0.56480682 4280097550
4.5346155 -0.19479628 -1.5921988 4282213222
4.4966846 -0.22081359 -1.5789881 4285436307
4.5074582 -0.24907649 -1.5833917 4286620070
4.5161748 -0.27736437 -1.5871178 4286487967
4.5143881 -0.30506986 -1.5871178 4286883493
4.5096164 -0.33255607 -1.5861017 4287278253
4.5103045 -0.36044538 -1.5871178 4287738804
4.5051956 -0.38787097 -1.5861017 4287410350
4.5092893 -0.41611278 -1.5884727 4287411120
1.8109165 -0.17808858 -0.61324632 4287673263
4.5150728 -0.47259369 -1.5925376 4287214254
4.4849691 -0.4972795 -1.5827142 4286884774
4.491178 -0.52588439 -1.5861017 4290436052
4.4803963 -0.55250996 -1.5833917 4283065435
4.4890513 -0.58156329 -1.5877953 4291485395
4.5198946 -0.61378402 -1.6003286 4278455044
4.5533042 -0.64680219 -1.6138781 4281218350
4.6292887 -0.68660659 -1.6430095 4280756005
4.6454444 -0.7181626 -1.6504618 4279767831
4.6418796 -0.74680251 -1.6508006 4287007106
4.6455617 -0.77666748 -1.6538491 4284179026
4.6462708 -0.80612296 -1.6558816 4286087272
4.6356812 -0.83361721 -1.6538491 4285691485
4.6147542 -0.85911679 -1.6480906 4288189302
4.5207019 -0.87033284 -1.6155717 4281017354
4.515276 -0.89805496 -1.6155717 4279112196
4.5041513 -0.92460763 -1.6135393 4279771674
4.5011544 -0.95281196 -1.6145556 4281285425
4.4915466 -0.97961032 -1.6132007 4281284910
4.487287 -1.0075638 -1.6138781 4281415980
4.4846873 -1.0359257 -1.6152331 4281152810
4.486485 -1.0653808 -1.6182817 4281348906
4.5941205 -1.1207732 -1.6606239 4280953895
4.5944581 -1.1507705 -1.6633339 4280560419
4.6055355 -1.1836253 -1.6701086 4278782979
4.586359 -1.2087439 -1.665705 4278914304
4.4262609 -1.1956295 -1.6087971 4288914578
4.2791972 -1.1841111 -1.5566314 4281020190
4.2609882 -1.2072669 -1.5525665 4280889384
4.228199 -1.2260499 -1.5430819 4289705136
4.1899276 -1.2428705 -1.5315648 4284834142
4.2461472 -1.2879518 -1.5556152 4281415226
4.2561383 -1.3195554 -1.56239 4278521617
4.2174654 -1.3359826 -1.5508728 4279903270
4.131309 -1.3366308 -1.5214026 4291285195
3.8353639 -1.2669019 -1.4123291 4290157699
3.819494 -1.2877054 -1.4092804 4290087007
3.8221972 -1.3147907 -1.4133452 4290480735
3.816721 -1.3391532 -1.4143615 4290480737
3.811976 -1.3638152 -1.4157164 4290152283
3.8097231 -1.3894365 -1.4180876 4291138927
3.8055356 -1.4144258 -1.4197813 4291730037
3.8047042 -1.440749 -1.4228299 4290678117
3.787014 -1.4606804 -1.4194425 4290743909
3.7700987 -1.4807931 -1.4163939 4290678629
3.7923911 -1.5164773 -1.4285885 4290088032
4.4923587 -1.8285062 -1.7043211 4289168995
4.4497623 -1.8430721 -1.6921265 4282397472
2.687793 -1.1519481 -1.0109246 4280826161
2.6936111 -1.1740593 -1.0160056 4282468417
2.6725943 -1.1844635 -1.0105859 4280295194
2.2383327 0.95966583 -0.8627075 4287456338
2.2562699 0.95101684 -0.86758292 4285021485
2.2681236 0.93966907 -0.87002063 4283312419
2.2764509 0.92679608 -0.87106538 4282459944
2.291667 0.91664469 -0.87489605 4281803043
2.2920141 0.90050673 -0.87280667 4281607191
3.9072793 1.5083969 -1.5139253 4291866009
3.9103258 1.4820666 -1.5114876 4284498991
2.7465661 1.0213827 -1.0465808 4287860873
2.9640961 1.0817168 -1.1301595 4280161290
3.8266389 1.3703038 -1.467957 4283510825
3.8278999 1.3443112 -1.4651711 4282260498
3.8334177 1.3198822 -1.4641263 4282130453
3.8370037 1.2948359 -1.4623852 4281012229
3.8430965 1.270679 -1.4616886 4282131480
3.8517127 1.2473634 -1.4620368 4282262296
3.8601875 1.2239898 -1.4623852 4282920228
3.8649392 1.1994468 -1.4613404 4282525211
3.8686388 1.174619 -1.4599475 4282327319
3.8766718 1.1511264 -1.4602957 4281868569
3.9376721 1.1430125 -1.4811903 4280754718
4.2277627 1.199229 -1.5905392 4279771424
4.271174 1.183286 -1.6044691 4278984224
4.3100233 1.1656299 -1.6166576 4279180576
4.3089371 1.1370074 -1.6135234 4279245347
4.3058476 1.1079746 -1.6096927 4279839030
4.3152924 1.0822184 -1.6107374 4279114789
4.5649738 1.1151763 -1.7037188 4279244827
4.598176 1.0934409 -1.713818 4279177234
4.6084514 1.0660524 -1.7152109 4279113241
4.6176496 1.0383731 -1.7162557 4279112211
4.4865699 0.97997969 -1.6640189 4281217837
4.4860797 0.95106965 -1.6615812 4282731075
4.4771399 0.92050141 -1.6560093 4283322947
4.4781075 0.89209592 -1.654268 4283322684
4.468771 0.86175823 -1.6486961 4283650364
4.4509377 0.83002001 -1.63999 4284109884
4.4356513 0.79903257 -1.6323286 4285425231
4.4681764 0.77662379 -1.642776 4284702280
4.4904227 0.75213969 -1.6493926 4284506184
