# .PCD v0.7 - Point Cloud Data file format
VERSION 0.7
FIELDS x y z rgb
SIZE 4 4 4 4
TYPE F F F U
COUNT 1 1 1 1
WIDTH 1097
HEIGHT 1
VIEWPOINT 0 0 0 1 0 0 0
POINTS 1097
DATA ascii
6.3048959 0.81691247 -0.67180443 4283458384
6.4173036 0.79146439 -0.68389785 4288259471
6.4358578 0.75369108 -0.68545109 4283786836
6.3899851 0.70860392 -0.6797927 4288857517
6.1767573 0.64663124 -0.65538406 4287081106
6.2725906 0.61777246 -0.66570228 4286353016
6.4247069 0.59296447 -0.68234456 4287201906
6.4311948 0.55378771 -0.68267739 4288386180
6.4731073 0.51740205 -0.68700439 4288058768
6.4880543 0.47855064 -0.68833578 4285691513
6.4809523 0.43806207 -0.6872263 4285627522
6.4914536 0.39877447 -0.68811387 4286484375
2.0630937 0.11430089 -0.19272846 4291610564
2.0458887 0.10076324 -0.19073138 4284900440
1.8687371 0.080581143 -0.17087159 4281151004
1.8056344 0.066776313 -0.16377085 4285228626
1.8189237 0.056091353 -0.1652132 4285425495
1.8132726 0.044783644 -0.1645475 4285097305
1.7230903 0.031998016 -0.15445119 4288848020
1.688473 0.021000154 -0.15056798 4281479982
1.6885699 0.010639485 -0.15056798 4281281838
1.6895974 0.00027834898 -0.15067893 4281348144
1.6965238 -0.010131971 -0.15145558 4281677109
1.695436 -0.020529194 -0.15134463 4282006074
1.6992527 -0.031005243 -0.15178841 4284704096
1.7079722 -0.041651167 -0.15278697 4286149996
6.5697966 -0.24202132 -0.69599122 4287996584
6.5532942 -0.28168723 -0.694327 4279899938
6.5266266 -0.32067138 -0.69155329 4283786870
6.5543056 -0.36235958 -0.69488174 4280178536
6.5380712 -0.40171513 -0.69332844 4281426293
6.5295339 -0.44142187 -0.69266278 4280631369
6.5177822 -0.48081946 -0.69166422 4289508806
6.5048027 -0.52001017 -0.69055474 4280699478
6.4965391 -0.55948651 -0.69 4280172370
6.4850669 -0.59860671 -0.68911242 4282602861
6.4723706 -0.63750976 -0.68811387 4282538095
6.4584532 -0.67617607 -0.68700439 4280365885
6.4275122 -0.71283227 -0.68400878 4287006842
4.6758995 -0.54753006 -0.48762977 4287926140
4.6566706 -0.5742631 -0.48585463 4287663482
4.6274343 -0.59950304 -0.48296994 4287268724
4.6039729 -0.62520885 -0.48075098 4286939761
4.5882425 -0.65176833 -0.47941959 4287005556
4.560564 -0.67640758 -0.47675681 4287400574
4.5700774 -0.70650482 -0.47831011 4291282626
4.5479951 -0.73169005 -0.47631305 4287006340
6.1450801 -1.0274915 -0.65760303 4287598481
4.6414881 -0.80529279 -0.4879626 4287797137
4.7870903 -0.86085749 -0.50504869 4291808728
4.8422937 -0.90149659 -0.51192755 4281280823
4.837647 -0.93137944 -0.51203847 4285227864
4.8688803 -0.9684152 -0.51625454 4292596425
4.9008136 -1.0060691 -0.52058154 4291738549
4.8974648 -1.0367385 -0.52091438 4288909449
4.8618817 -1.0604136 -0.51758587 4283849556
4.4560199 1.2337135 -0.53531301 4282270026
4.1464219 1.1205647 -0.49457291 4286348414
4.1896815 1.1047262 -0.49925002 4294046706
15.012221 3.8631403 -1.8844135 4281413437
15.005802 3.763468 -1.8805979 4289374126
4.4271765 1.0806617 -0.52706653 4286809994
14.930174 3.550333 -1.8652127 4282732620
14.922672 3.4519446 -1.8615203 4282140740
5.0340171 1.1311899 -0.6017772 4289639618
5.0476503 1.1017635 -0.60263878 4290496982
5.2222638 1.106391 -0.62393194 4294112237
15.512717 2.8930061 -1.9189994 4287202692
6.1882744 0.99687272 -0.73925966 4287205000
6.2089853 0.9611634 -0.74110591 4287401098
6.2167292 0.92333966 -0.74135208 4282795849
5.9786224 0.85046881 -0.71082777 4291218634
3.5490313 0.48217744 -0.40607706 4287273097
6.2395601 0.80964887 -0.74221361 4280297750
6.271987 0.77476001 -0.74565995 4282467126
6.2835221 0.73707187 -0.74652147 4279510552
6.0166912 0.66832173 -0.71267396 4285308296
5.9930439 0.62848794 -0.70922768 4288003508
6.357255 0.62734139 -0.7541526 4292344315
6.4064403 0.59253478 -0.75981432 4289053382
6.4386277 0.55569422 -0.76338369 4284976538
6.4023476 0.51299936 -0.75846046 4288137951
6.4152713 0.47443938 -0.75969124 4288268757
6.4705377 0.43863386 -0.76621461 4286029729
6.4295249 0.39622939 -0.76079899 4283990403
6.417963 0.35599911 -0.75907582 4289056982
1.925012 0.094115421 -0.20089957 4282204985
1.8353299 0.078390867 -0.18969911 4284768853
1.8099918 0.06616874 -0.186499 4284636754
1.8411132 0.056016698 -0.19031453 4285229143
1.8285252 0.044397388 -0.18871447 4285163860
1.7196187 0.031127105 -0.17517546 4283914061
1.6880232 0.020173656 -0.17123684 4281479469
1.6851382 0.0097963884 -0.17086759 4281019179
1.6841742 -0.00054397708 -0.17074451 4281479730
1.6821544 -0.010866422 -0.17049834 4281545523
1.6770945 -0.021128673 -0.16988292 4282532418
1.6818943 -0.031508226 -0.17049834 4284374361
1.6806773 -0.041803554 -0.17037526 4286019185
6.4036841 -0.23465282 -0.75661421 4291884287
6.2058067 -0.26557633 -0.73224401 4291418585
6.2813754 -0.30741894 -0.74184436 4294441212
6.2526169 -0.34448594 -0.73852116 4293656575
6.2593002 -0.38338917 -0.73962891 4291027425
6.2469287 -0.42112267 -0.73839808 4292934385
6.2818365 -0.46220544 -0.74307519 4291620087
6.3817663 -0.50892717 -0.75587571 4283271585
6.3903885 -0.54909271 -0.75735271 4282284951
6.374052 -0.58711213 -0.75575262 4279322726
6.3732924 -0.62650216 -0.75612187 4280834938
6.379199 -0.66662586 -0.75735271 4281816682
6.3463831 -0.70259374 -0.75378335 4287072387
4.684001 -0.54797572 -0.54675961 4287332977
4.6697159 -0.57537371 -0.54540569 4286478181
4.6513343 -0.60210842 -0.54355949 4286675049
4.6406684 -0.62970477 -0.54269791 4287004527
4.6111693 -0.65454763 -0.53949779 4286742892
4.5893955 -0.68021446 -0.53728229 4287730055
4.5753279 -0.70684892 -0.53605151 4287466885
4.5571866 -0.73270726 -0.53432834 4287400839
4.5085559 -0.75330752 -0.52878964 4294637817
4.6378145 -0.8041513 -0.54565185 4294241514
4.7539148 -0.85433 -0.56091404 4288976270
4.7602916 -0.8856588 -0.56239098 4280422153
4.7840047 -0.92046881 -0.56608349 4286472799
4.798708 -0.9538638 -0.56866819 4281800987
4.8063755 -0.9860791 -0.57039136 4289370779
4.8147988 -1.0186297 -0.57223755 4283520591
4.042799 1.1464227 -0.53505272 4286020738
4.0440278 1.1200088 -0.5342415 4292467672
4.0613456 1.0980176 -0.53572869 4285493612
4.0852513 1.0776243 -0.53816223 4281743682
4.0793118 1.0493298 -0.53640467 4280492081
4.3663144 1.0946093 -0.57588214 4292993256
5.060833 1.1374238 -0.6694383 4293060838
5.0212512 1.0962093 -0.66294885 4286088839
5.3613262 1.1360073 -0.70945656 4284574572
6.0080667 1.1196852 -0.79557693 4286544762
6.0275006 1.0850806 -0.79733449 4286476916
6.0418553 1.0494322 -0.79841608 4288910990
6.0393858 1.0108687 -0.79719931 4288122754
6.0718861 0.9780454 -0.80084962 4282596922
6.0905023 0.94274008 -0.80260718 4283387476
6.0932322 0.90491533 -0.80220157 4292534243
5.8279266 0.82901615 -0.76488727 4289905593
5.9212651 0.80525172 -0.77705497 4291087040
6.2189064 0.80687714 -0.81734359 4282993478
6.2119398 0.76724678 -0.81572127 4282401869
6.2066898 0.72796297 -0.81436926 4285108100
5.8141775 0.64581072 -0.75988495 4286952612
5.8692722 0.61549366 -0.7669152 4289912018
6.2200241 0.61369199 -0.8145045 4294311935
6.2256455 0.57569742 -0.81477487 4285826179
6.2132664 0.53612489 -0.8126117 4291425263
6.2302666 0.49909773 -0.8145045 4290706681
6.2885466 0.464948 -0.82207549 4290639087
6.2477846 0.42340842 -0.81612682 4291359987
6.214663 0.38287359 -0.81125975 4290695888
6.2277775 0.34533671 -0.81274694 4285495161
6.2297788 0.30711728 -0.81274694 4279308563
1.8047119 0.07814648 -0.20814684 4284176716
1.7893151 0.066486269 -0.20598368 4284835414
1.831284 0.056787036 -0.21166195 4285032277
1.8365506 0.045671538 -0.21233793 4285295698
1.7298062 0.032420468 -0.19773668 4285032023
1.7022318 0.021462493 -0.19395117 4281215527
1.7053038 0.011035954 -0.19435677 4280821800
1.6984036 0.00057144207 -0.19341038 4281414450
1.6973845 -0.0098438067 -0.19327518 4281743415
1.6923383 -0.020198321 -0.19259921 4282203966
1.6892105 -0.030527549 -0.19219361 4283125066
1.688001 -0.040867567 -0.19205841 4284769889
6.1935511 -0.22705902 -0.80733907 4288325811
6.1930313 -0.26510012 -0.80747426 4289641144
6.1497235 -0.30105746 -0.80179596 4291943638
6.0013423 -0.33070785 -0.78178686 4291154383
6.0288682 -0.36934468 -0.78584278 4292603886
6.1658773 -0.41573724 -0.80490553 4291091176
6.1197324 -0.45036015 -0.79895687 4283523959
6.0971003 -0.48632476 -0.79625291 4288657872
6.1621161 -0.529585 -0.80558151 4283399573
6.1844034 -0.56974995 -0.80909663 4282479761
6.1827626 -0.60788 -0.809367 4282084754
6.1532955 -0.64312577 -0.80585188 4278922826
6.1482482 -0.6807605 -0.80571669 4285430139
4.7189713 -0.55174506 -0.60995173 4286872681
4.706646 -0.57959908 -0.60873497 4286807924
4.6912098 -0.6069411 -0.60711259 4285299325
4.666779 -0.63291639 -0.60427344 4285891470
4.6451497 -0.65903264 -0.6018399 4284637804
4.5724111 -0.67735296 -0.59237611 4284308053
4.563273 -0.70463955 -0.59170014 4286873980
4.5412545 -0.72979474 -0.5892666 4288453010
4.5054188 -0.75242025 -0.58494031 4286216048
4.5290279 -0.78496015 -0.58886105 4285689445
4.6830831 -0.84130436 -0.61089808 4279307530
6.0259862 -1.1208777 -0.79801047 4283325796
5.9820218 -1.1507167 -0.79287297 4285953906
5.9155688 -1.1756153 -0.78462601 4281936419
4.7901154 -0.98246694 -0.62887925 4287859333
5.9074826 -1.2495556 -0.78557235 4284769372
5.8871188 -1.2830361 -0.78381479 4283652691
5.8878369 -1.3210875 -0.78503156 4281614390
5.9558878 -1.3747998 -0.79571211 4283919459
3.8671062 1.1225071 -0.56111574 4285165167
3.8796299 1.1003789 -0.5619995 4294440941
4.4553213 1.2343544 -0.64993256 4288782494
4.1200652 1.1142029 -0.5970549 4280624696
4.0837913 1.0775343 -0.5904268 4286611862
4.2924271 1.1045175 -0.62150532 4294703359
4.9994993 1.1566136 -0.72564042 4282665031
4.9688687 1.1174432 -0.71989608 4288122764
4.9901261 1.0901035 -0.72210544 4290492591
5.0431628 1.0693225 -0.72917545 4285295462
5.8236818 1.1977103 -0.84686136 4284243028
5.8415909 1.1640826 -0.8484816 4289373083
5.8457098 1.1276548 -0.84803969 4287725688
5.7951546 1.0810522 -0.83934951 4285883476
5.8445072 1.0532 -0.84583032 4290815631
5.8995814 1.0258003 -0.85319489 4294961108
5.8667459 0.9830361 -0.84730327 4280947719
5.933207 0.95679468 -0.8564353 4282001963
5.9594913 0.92355621 -0.85952842 4282400834
5.7194905 0.85041046 -0.82255828 4286219134
5.6903296 0.81041223 -0.81740308 4289313456
5.9705815 0.81303668 -0.85879201 4281748304
6.0254803 0.7828958 -0.86630386 4282804088
6.0036669 0.74262595 -0.86232698 4282017909
5.8018246 0.68150115 -0.83139575 4284059008
5.7036638 0.63449514 -0.81607741 4286034341
5.985826 0.62878305 -0.85776097 4290833643
5.9964614 0.59272528 -0.85879201 4283129696
6.0186973 0.55765796 -0.8615905 4293656575
6.0190492 0.5204612 -0.86114866 4292147446
5.9324126 0.47629827 -0.84774512 4291493113
6.0417519 0.44780511 -0.86365259 4290572524
6.0325441 0.40991825 -0.86188513 4292803325
6.0398822 0.37320149 -0.86262155 4281216817
6.0440331 0.3362447 -0.86291617 4283582022
6.0232611 0.29802427 -0.85952842 4288977299
1.8154253 0.077842705 -0.23206648 4283392104
1.8040079 0.066258661 -0.230299 4284045908
1.8152553 0.055527899 -0.2319192 4285294420
1.8333597 0.044835288 -0.23457044 4285032524
1.7307532 0.031635642 -0.21925211 4285098838
1.7121234 0.020774482 -0.21645358 4280888104
1.701339 0.010196005 -0.21483338 4280888106
1.6944458 -0.00024718203 -0.21380234 4281282351
1.6914451 -0.010627513 -0.21336046 4281479730
1.6804688 -0.020878246 -0.21174026 4282795590
1.6714088 -0.031030018 -0.21041463 4283453520
1.6741532 -0.041356202 -0.2108565 4284308831
1.6699134 -0.051508635 -0.21026734 4285559157
5.6183939 -0.20504139 -0.79869705 4293650657
5.8314705 -0.24861036 -0.83065927 4291149743
5.8100767 -0.28342703 -0.82771349 4289703328
5.7697115 -0.31696352 -0.82196909 4294440689
5.7459383 -0.35103738 -0.81872869 4294571506
5.789072 -0.38933098 -0.82550406 4293585891
5.8161678 -0.42701146 -0.82992285 4294442483
5.7897749 -0.46081212 -0.82638782 4294638571
5.7957077 -0.49708778 -0.82771349 4294834670
5.7777743 -0.53128469 -0.82550406 4280955696
5.771452 -0.56643718 -0.82506222 4280562227
5.7727866 -0.60235173 -0.82579869 4281087805
5.7817626 -0.63917184 -0.82771349 4287270541
4.7500982 -0.55485421 -0.67364651 4287927182
4.7083168 -0.57928878 -0.66790211 4286612344
4.6791687 -0.604877 -0.66407257 4286021239
4.6508651 -0.63026202 -0.66039026 4286087285
4.6136131 -0.65407521 -0.65538234 4286218356
4.5928788 -0.6799134 -0.6528784 4286481781
4.5710244 -0.7053712 -0.65022713 4286546553
4.5421948 -0.7294904 -0.64654487 4288059541
4.5220232 -0.75474572 -0.64418823 4291677906
4.512434 -0.78163528 -0.64345175 4283059793
4.6964259 -0.84316963 -0.67202628 4294179057
5.7365818 -1.066022 -0.8303647 4294502856
5.7406168 -1.1032523 -0.83198494 4294566331
5.7376204 -1.139225 -0.83257407 4294962636
5.7285843 -1.1740122 -0.8322795 4285883983
5.7270794 -1.210366 -0.83316326 4289832341
5.7437072 -1.2507403 -0.83684552 4284109892
5.7301335 -1.2846625 -0.83596182 4290623139
5.7597327 -1.3284596 -0.84170616 4291279779
5.709125 -1.3537432 -0.83522534 4291542953
5.6949449 -1.3873447 -0.83434159 4291937457
5.7026381 -1.4263388 -0.83684552 4294964967
5.6564131 -1.4517208 -0.83110118 4281217067
3.7595606 1.1154436 -0.59361446 4293388265
3.7701268 1.093454 -0.59425122 4292927963
4.1225181 1.1682464 -0.65219712 4291677119
4.2504492 1.1763618 -0.67241448 4293520098
4.0459991 1.0931152 -0.63707387 4283585367
4.1433229 1.0921665 -0.65219712 4294769918
4.852788 1.152526 -0.76554179 4279046670
4.8366823 1.1173964 -0.76172119 4293061356
5.0351391 1.1307307 -0.79340041 4289111716
5.0101504 1.0928735 -0.78814709 4293912285
5.5711632 1.1794409 -0.87952328 4287726456
5.6382546 1.1575402 -0.88939321 4288448372
5.7014122 1.1340899 -0.89862633 4289630067
5.6917825 1.0959134 -0.89592004 4292918428
5.695488 1.0604267 -0.89544249 4292915854
5.6882844 1.0230142 -0.89321381 4293507213
5.7022357 0.98944211 -0.89448732 4292983951
5.7043052 0.95378423 -0.89385056 4282724632
5.6973786 0.91672736 -0.89178109 4280426783
5.7009444 0.88145006 -0.89146268 4291679183
3.4220448 0.50777668 -0.51911259 4283586897
5.6380239 0.8010143 -0.87952328 4291738513
5.6829419 0.77184975 -0.88605016 4282856986
5.6983404 0.73836005 -0.88780129 4283649335
5.6900263 0.70181161 -0.88573176 4282338360
5.6177421 0.65793288 -0.8733148 4282211913
5.6285424 0.62421197 -0.87442917 4293056952
5.682343 0.59490329 -0.88254791 4291540116
5.6976762 0.56118637 -0.88445824 4293318324
5.6921644 0.52539951 -0.88302553 4292720267
5.6598711 0.48741609 -0.8772946 4292587915
5.6676755 0.45307162 -0.87809056 4292721560
5.6821637 0.41915765 -0.88000089 4294696387
5.6934938 0.38488334 -0.88143361 4294304201
5.6937776 0.34982052 -0.8811152 4281145868
5.6899023 0.31455103 -0.88016003 4284368697
5.6897531 0.27953574 -0.87984169 4282659877
5.7170057 0.2457193 -0.88398069 4281937183
1.8164781 0.067174993 -0.25437626 4284833885
1.8454728 0.056904383 -0.25899285 4284241229
1.8448002 0.045555539 -0.25883365 4283913281
1.7206728 0.03195367 -0.23877548 4283387968
1.6833239 0.020937301 -0.23272617 4280559392
1.6794716 0.010584253 -0.23208942 4280821800
1.6814796 0.00027888027 -0.23240779 4281282351
1.678488 -0.010020123 -0.23193021 4281545523
1.6655616 -0.020160606 -0.22986071 4282006074
1.6594841 -0.030270502 -0.22890557 4282861124
1.6632148 -0.040549506 -0.22954233 4284374360
5.6592126 -0.20842285 -0.87442917 4292199074
5.6617727 -0.24331301 -0.87506592 4293781196
5.6670752 -0.27838799 -0.87618023 4294506217
5.6465311 -0.31211868 -0.87315559 4291150525
5.6553493 -0.34742591 -0.87490672 4291609272
5.6472011 -0.38172004 -0.87395155 4293316793
5.6565676 -0.41723573 -0.87586188 4293972664
5.6578369 -0.45225084 -0.87649864 4294367163
5.6451201 -0.48611048 -0.87490672 4292656802
5.6449804 -0.52101153 -0.87538427 4292460195
5.6446247 -0.55592918 -0.87586188 4291669650
5.6165595 -0.587982 -0.87188208 4288841063
4.8386598 -0.53652656 -0.7462796 4288319355
4.8274326 -0.5652867 -0.74500602 4287336069
4.7121739 -0.58111244 -0.72685814 4287797136
4.6967711 -0.60849178 -0.72494787 4287072638
4.6792536 -0.6354382 -0.72271919 4287268985
4.6537628 -0.66108114 -0.71921694 4287596921
4.6291118 -0.6865803 -0.7158739 4287532929
4.605299 -0.71195281 -0.71269006 4287401600
4.5969448 -0.73956937 -0.7120533 4288980884
4.5699248 -0.76401573 -0.7083919 4287796351
4.558342 -0.79086 -0.70727754 4293716693
4.7321868 -0.85097963 -0.73656887 4291408279
5.611053 -1.0446806 -0.88159281 4290090350
5.6074452 -1.0796497 -0.88207036 4293707425
5.5987792 -1.1136508 -0.88175195 4294960582
5.5966754 -1.1489763 -0.88254791 4294960587
5.5904865 -1.1834997 -0.88270712 4291081648
5.1230264 -1.1173927 -0.80677253 4282400054
5.5832477 -1.2537454 -0.88398069 4293383874
5.5850692 -1.2902029 -0.88557261 4290487706
5.5636001 -1.3212534 -0.88334388 4289304712
5.5294924 -1.3490465 -0.87904572 4291211680
5.521111 -1.3829494 -0.87904572 4291803566
5.5020037 -1.4140964 -0.8772946 4282331181
5.4741306 -1.4427958 -0.87411076 4280562737
4.0793023 -1.1828601 -0.64614785 4290230460
4.0634494 -1.2053405 -0.64471507 4284440415
4.1020999 -1.2717834 -0.65378904 4283259722
4.0029297 -1.2680024 -0.63834739 4287929489
3.5848808 1.0876925 -0.61087072 4286084729
3.6368232 1.079143 -0.61907381 4288650889
4.1161432 1.166762 -0.70315534 4283781974
4.1327195 1.1441152 -0.70486432 4291546572
4.1463194 1.1205369 -0.70606059 4290098611
4.1559749 1.095829 -0.70657331 4282663996
4.5946622 1.1215899 -0.78142637 4289240733
5.5015287 1.3074821 -0.941899 4283252794
5.0323663 1.1633028 -0.85696298 4285423448
5.0173001 1.1274294 -0.85303235 4293649107
5.0645518 1.1054566 -0.86021006 4283977295
5.5685859 1.1798421 -0.94839311 4291671198
5.6201143 1.1547829 -0.95625436 4292785056
5.6261277 1.1200842 -0.95608348 4292519826
5.6241875 1.0838619 -0.95454544 4291073924
5.6229835 1.0478865 -0.95317823 4289825662
5.617671 1.0112678 -0.95112747 4288443496
5.6169753 0.97559768 -0.9499312 4288379499
5.6228561 0.94111419 -0.9499312 4281211671
5.6246338 0.90596777 -0.9492476 4294505465
3.4500549 0.53355008 -0.56660831 4289244585
5.6109633 0.83325332 -0.94497514 4280553992
5.6149955 0.79867047 -0.94480425 4284960060
5.6149087 0.76353759 -0.94394976 4285222723
5.6136255 0.72830904 -0.94292438 4284236090
5.6091886 0.69276196 -0.94138628 4283646263
5.6084409 0.65775669 -0.94053185 4281935643
5.6074748 0.62278676 -0.93967736 4284501568
5.6102109 0.5882653 -0.93950641 4285554511
5.6068511 0.55315208 -0.93831015 4283315754
5.6111207 0.51882958 -0.93848103 4283972405
5.5886765 0.48218322 -0.93403774 4283316520
5.6003685 0.44859254 -0.93557578 4282065420
5.6167722 0.41524073 -0.93796837 4285486145
5.6142988 0.38043499 -0.93711388 4283710260
5.607677 0.3454321 -0.93557578 4282726448
5.5998535 0.31047001 -0.9338668 4282989362
5.5652418 0.27430183 -0.92754364 4282397734
1.8695477 0.079874188 -0.28565297 4280688935
1.8414488 0.067339063 -0.28069693 4280493348
1.8211464 0.055396508 -0.27710807 4280161812
1.7869775 0.043362029 -0.27112669 4281212960
1.7468201 0.031637974 -0.26411989 4282596153
1.7016617 0.020346094 -0.25625861 4280229924
1.6948576 0.0098596336 -0.25506231 4280821802
1.6958716 -0.00053963868 -0.25523323 4281282351
1.6889395 -0.010905541 -0.25403693 4281545523
1.6780033 -0.021139489 -0.25215706 4282006074
1.6786026 -0.041753396 -0.25232795 4283453779
5.5938559 -0.20512584 -0.93198693 4291277749
5.5895381 -0.23931941 -0.93147427 4284893015
5.5948534 -0.27394754 -0.93267053 4294898681
5.590116 -0.3081097 -0.93215787 4281282862
5.5841866 -0.34216398 -0.93147427 4287598217
5.5819821 -0.37642148 -0.93147427 4292661190
5.6267343 -0.41412646 -0.93967736 4283646520
5.6388202 -0.44981581 -0.94224077 4283185199
5.6506791 -0.48566908 -0.94480425 4282855205
5.6495552 -0.52051222 -0.94514608 4283248934
5.6629243 -0.55680305 -0.94805133 4283514677
5.6456823 -0.59010845 -0.94565874 4282924864
4.9055018 -0.54334396 -0.81714392 4283779652
4.8609724 -0.56863511 -0.80996621 4284373844
4.804584 -0.59195739 -0.80073774 4281149726
4.8028159 -0.62167907 -0.80107957 4293782235
4.6173053 -0.62654054 -0.76929265 4289703065
4.6016674 -0.65320128 -0.76724184 4288716423
4.5858769 -0.67969376 -0.76519108 4289374355
4.5728559 -0.70646763 -0.76365304 4289965722
4.561625 -0.73341972 -0.76245672 4290886311
4.6289568 -0.77339292 -0.77510315 4279634432
4.612474 -0.7997641 -0.77305239 4288119658
4.6200871 -0.83031321 -0.77527404 4290026893
5.6640186 -1.0535728 -0.96035594 4281608236
5.6574469 -1.0883065 -0.96035594 4280622111
5.669991 -1.1268369 -0.96377385 4279043847
5.6137433 -1.1515188 -0.9550581 4280092679
5.5940404 -1.1832942 -0.95283645 4279895811
5.5934134 -1.2190636 -0.95403272 4281411366
5.0445437 -1.1320227 -0.85781747 4282066477
5.529068 -1.2763195 -0.94531697 4282923065
5.5144219 -1.30863 -0.94412065 4283052845
5.4603381 -1.3312485 -0.93591762 4285815373
5.4014068 -1.3520577 -0.92686003 4292528829
5.3672409 -1.3785621 -0.9222458 4290424478
5.3729739 -1.4152303 -0.92480928 4291871417
4.0514121 -1.0940571 -0.68897086 4285036412
4.051271 -1.1207327 -0.69016713 4280497976
4.0338893 -1.1426188 -0.68828726 4294376437
4.0154457 -1.1640599 -0.6862365 4286478691
4.0460153 -1.1998712 -0.69307238 4288451695
4.0376339 -1.2243888 -0.69290149 4283453492
4.0676932 -1.2607981 -0.69973737 4282467903
3.5024691 1.086798 -0.64386475 4294638581
3.5927968 1.0906945 -0.66016012 4279177478
3.9076083 1.1600918 -0.72003168 4279045389
4.1705213 1.2103242 -0.76965004 4290624706
4.1182823 1.1678202 -0.75811511 4288190877
4.1291599 1.1435782 -0.75884748 4292401366
4.1512842 1.1223245 -0.76177698 4292204240
4.1666479 1.0990875 -0.76342481 4280954415
4.5383778 1.1377288 -0.832268 4294965745
5.3608913 1.3089457 -0.98862988 4287857003
5.1373563 1.2210312 -0.94432122 4285554771
5.0748291 1.1733249 -0.93095541 4285688424
5.2123823 1.1714725 -0.95585608 4294044378
5.0456233 1.101528 -0.9227162 4294961093
5.5350895 1.1728129 -1.0146292 4293709731
5.5643301 1.1433779 -1.0188403 4280288768
5.5548501 1.105952 -1.0157278 4279698944
5.5567045 1.0709175 -1.0148122 4280619029
5.5660706 1.0373422 -1.0153615 4285094487
5.6942425 1.0251086 -1.0384313 4280887093
5.7081742 0.99149549 -1.0398961 4280165695
5.7093019 0.95564097 -1.0389806 4290301660
5.7325292 0.92340446 -1.0422763 4280701535
5.7050548 0.883102 -1.0360512 4280508540
5.6928625 0.8454814 -1.0327555 4280510348
5.703783 0.81136501 -1.033854 4280379273
5.7028089 0.77555758 -1.0327555 4280444036
5.7035608 0.74004543 -1.0320231 4280576394
5.7031155 0.70443296 -1.0311077 4280640904
5.7053776 0.66919708 -1.0307415 4280703600
5.7035141 0.63352609 -1.0296428 4284713112
5.701427 0.59790331 -1.0285443 4280703350
5.6991181 0.56232995 -1.0274458 4280181381
5.6809254 0.52536011 -1.0234177 4281164667
5.684042 0.49049267 -1.0234177 4286290339
5.7016439 0.45678344 -1.0261641 4281281314
5.6984568 0.42135566 -1.0250655 4282003492
5.6970115 0.38611698 -1.0243331 4282137398
5.6894617 0.35054961 -1.0225022 4282664768
1.8475949 0.10272308 -0.30550802 4282331941
1.8452448 0.091239467 -0.30495873 4281737751
1.8447875 0.079873227 -0.30477563 4283252014
1.8305066 0.068007939 -0.30202922 4285096017
1.8073063 0.056048553 -0.29763499 4286675562
1.8066334 0.044933841 -0.29745188 4288055419
1.7724725 0.033210609 -0.29104361 4284766801
1.7352884 0.021871783 -0.28408608 4281282092
1.7167113 0.011107194 -0.28060728 4280887593
1.7118317 0.00057290687 -0.27969182 4281150765
1.7088537 -0.0099129314 -0.27914253 4281282351
1.6949984 -0.020230677 -0.27657923 4282006074
1.6938595 -0.030612623 -0.27639613 4282466625
1.6936396 -0.041005373 -0.27639613 4282927174
5.6846356 -0.20837016 -1.020305 4281353044
5.6881609 -0.24345702 -1.0212206 4280103754
5.645319 -0.27633283 -1.0135306 4287273891
5.6641316 -0.31210393 -1.0173756 4287929503
5.6699595 -0.34733394 -1.0188403 4288323744
5.6481047 -0.38079366 -1.0151784 4287272335
5.676055 -0.41768122 -1.0208544 4286944397
5.6733856 -0.452501 -1.0208544 4287207569
5.6763792 -0.48780915 -1.021953 4287602327
5.6713214 -0.52244914 -1.0215868 4287932321
5.6709442 -0.55752653 -1.022136 4288063139
5.6683941 -0.59241462 -1.0223191 4288718498
5.6675839 -0.62750876 -1.0228684 4278983721
5.6782732 -0.66398638 -1.0256149 4280305258
5.680922 -0.69965672 -1.0268965 4285232764
4.7395864 -0.613204 -0.85094351 4284112214
4.7152767 -0.63949782 -0.84709859 4282137133
4.6917977 -0.66565466 -0.84343672 4281215782
4.695405 -0.6955837 -0.84490144 4280886304
4.6793895 -0.72257972 -0.84270436 4282005037
4.6457491 -0.74659628 -0.83721155 4283650889
4.6226568 -0.77200961 -0.83373272 4287861399
4.5200005 -0.78339469 -0.81524032 4287006350
4.4870481 -0.8060708 -0.80993056 4287728787
4.4771852 -0.83268845 -0.8090151 4294765553
4.4855075 -0.86274499 -0.81157845 4286606954
4.4849501 -0.89120978 -0.81249392 4284766282
4.4678411 -0.91634089 -0.81029677 4290229409
4.459249 -0.94312733 -0.80974752 4292336840
5.3697286 -1.1702415 -0.98441869 4289175955
5.4343891 -1.2193143 -0.99815077 4292663501
5.4143529 -1.249761 -0.99577051 4292072141
5.0928445 -1.2084876 -0.93571585 4278453248
4.9525738 -1.207339 -0.9102658 4279374344
4.9507947 -1.2391374 -0.91136438 4280493087
5.1059203 -1.3113209 -0.94267339 4284570713
5.0378866 -1.326847 -0.93113852 4286342760
5.2707229 -1.4228295 -0.97764426 4288582541
4.0746593 -1.126731 -0.74822807 4285494633
4.0563188 -1.1484965 -0.74603093 4284373836
4.0539165 -1.1747326 -0.74694639 4281216283
4.0174141 -1.1909204 -0.74127054 4282468911
3.3987138 1.101169 -0.66939306 4290428609
3.4035368 1.0797005 -0.6690039 4294638833
4.1119847 1.2218521 -0.81162864 4292992741
4.0892649 1.1878345 -0.80540222 4280492324
4.1172338 1.1686187 -0.80968291 4289506466
4.1432304 1.1485797 -0.81357443 4285293155
4.157774 1.1251878 -0.81513107 4294371827
4.1475301 1.0951427 -0.81162864 4291610564
4.1684189 1.0733461 -0.8145473 4293650909
5.3022404 1.330989 -1.0451207 4287528301
5.1407146 1.2569242 -1.0104861 4286670682
5.2761903 1.2558197 -1.0365593 4281145868
5.0535073 1.1700478 -0.98966634 4293188542
5.1916866 1.1685555 -1.0163234 4292919699
5.2754149 1.1534561 -1.0318896 4294690709
5.3601108 1.1375763 -1.0476502 4294952086
5.3852434 1.108427 -1.0513473 4293898883
5.3880954 1.0745947 -1.0505689 4292915336
5.5111179 1.0640377 -1.0741127 4293845991
5.621675 1.0496676 -1.095127 4280366677
5.6492462 1.0189888 -1.0994077 4280172636
5.66119 0.98531681 -1.1005751 4293128702
5.6826067 0.95316124 -1.1036884 4279512888
5.7125559 0.92218846 -1.1085528 4279787379
5.7113228 0.88606548 -1.1071907 4280313222
5.7137408 0.85057086 -1.1066071 4280510350
5.7169104 0.81521869 -1.1062179 4280707986
5.7179174 0.77959424 -1.1054395 4280119188
5.7167573 0.7437346 -1.1042721 4280054160
5.7153726 0.70791858 -1.1031046 4280315789
5.7147379 0.67226237 -1.1021317 4281561478
5.720705 0.63740242 -1.1025209 4280179051
5.7235327 0.60218602 -1.1023264 4280380302
5.7339525 0.56773365 -1.1036884 4279987088
5.7148647 0.5304504 -1.0992131 4279587690
5.7160578 0.49520496 -1.0988239 4288002236
5.7033453 0.45886075 -1.0957108 4288062364
5.6992059 0.423347 -1.0943487 4279837467
5.7007184 0.38830251 -1.0941541 4282401083
5.683413 0.35209918 -1.0902625 4282137660
1.8483623 0.10233548 -0.32791087 4283183916
1.8411182 0.090601519 -0.32635427 4283448369
1.8093009 0.077889763 -0.31993324 4283449393
1.799943 0.066418536 -0.31798747 4283977536
1.7797279 0.05472637 -0.31390134 4285621589
1.7859138 0.043953799 -0.31506881 4285555796
1.7439793 0.032188091 -0.30670202 4282201384
1.719624 0.021168049 -0.30183759 4280558880
1.6912764 0.010421218 -0.29619485 4280887593
1.6864042 4.0013809e-05 -0.29522198 4281084972
1.6853917 -0.010302255 -0.29502741 4281413937
1.679412 -0.020575445 -0.29385993 4281874488
1.6714082 -0.030740947 -0.29230332 4282203453
1.6653044 -0.040855736 -0.29113588 4283519313
5.7111425 -0.20741153 -1.0943487 4284114022
5.7117229 -0.24253337 -1.0947379 4284378233
5.6346869 -0.27392361 -1.0797554 4288588723
5.6182089 -0.30769068 -1.0768368 4287140497
5.6739812 -0.34566477 -1.0883168 4287008650
5.5738831 -0.3739281 -1.0688591 4287799708
5.6849647 -0.41641051 -1.0914301 4288129186
5.682303 -0.45128492 -1.0914301 4287800735
5.6774721 -0.48597547 -1.0910408 4287932323
5.6821971 -0.52151823 -1.0925975 4287932325
5.6818194 -0.55666006 -1.0931813 4287603617
5.6782966 -0.59151256 -1.0931813 4287601302
5.6716356 -0.62602061 -1.0925975 4278193173
5.7017884 -0.66477805 -1.0994077 4280105295
5.7073379 -0.70094478 -1.1013534 4279706930
4.7242465 -0.60985732 -0.90560925 4284967796
4.7048621 -0.63673228 -0.90249598 4279837233
5.7109509 -0.80835027 -1.1048559 4281421157
5.7000613 -0.84251744 -1.1036884 4280895838
5.6947842 -0.87747657 -1.1036884 4283063913
4.7362466 -0.75975984 -0.91222483 4282402890
4.7314954 -0.78880668 -0.91222483 4286614156
4.4936237 -0.77757704 -0.86533183 4284509557
4.49263 -0.80582649 -0.86611015 4286346353
4.5155702 -0.83856416 -0.87175286 4285949277
4.5141931 -0.86699438 -0.87253118 4286215797
4.5087881 -0.89467657 -0.87253118 4279637775
4.4647746 -0.91446245 -0.86474812 4286148186
4.4226079 -0.934147 -0.85735422 4287136624
4.4014573 -0.95793253 -0.85424095 4287401343
4.3820953 -0.98192215 -0.8515169 4286942594
4.3673854 -1.0068108 -0.84976572 4286545781
4.33249 -1.026811 -0.8439284 4284966749
4.3079991 -1.0489709 -0.84023142 4280558099
4.2891097 -1.0722952 -0.83770198 4283189562
4.2491932 -1.0900705 -0.83089179 4285821539
4.2054262 -1.1063994 -0.82330328 4292333506
4.1701446 -1.1245286 -0.81746596 4281938723
4.1376362 -1.1430498 -0.81221241 4282464810
4.1192179 -1.1652156 -0.80987746 4283253559
4.097857 -1.186381 -0.80695879 4287269506
3.2825458 1.0852106 -0.68968081 4291743436
3.3040376 1.06987 -0.69298285 4290492585
4.0609655 1.2056048 -0.85395533 4283979876
4.1068153 1.1918421 -0.86241668 4283716189
4.111227 1.1658202 -0.86179757 4292927710
4.1522508 1.149971 -0.86922705 4291415487
4.1658411 1.1262585 -0.87067169 4288915604
4.2852631 1.1303647 -0.89523029 4282730811
5.2625074 1.3535699 -1.1065583 4286938482
5.1938353 1.3019882 -1.0898418 4284631097
5.2235889 1.2754315 -1.0945885 4287393112
5.2351246 1.2442608 -1.095414 4279962624
5.0739193 1.1731148 -1.0588857 4292068525
5.2118125 1.1713446 -1.087159 4293904551
5.2351532 1.1428901 -1.0906674 4294231187
5.2602549 1.1145986 -1.0945885 4294557334
5.2717867 1.0832859 -1.0956204 4291204997
5.4673858 1.0885445 -1.1362762 4291870137
5.5239239 1.064602 -1.1470078 4288721857
5.556324 1.0355264 -1.1525799 4283463558
5.5789442 1.00436 -1.1560882 4290696930
5.6042833 0.97345704 -1.1602157 4279319629
5.6333117 0.9429267 -1.1651688 4280375928
5.6505842 0.91021013 -1.1676452 4279983488
5.6763692 0.8786636 -1.1719792 4279918470
5.6981068 0.84626001 -1.1754875 4279853958
5.7361293 0.81596416 -1.1825043 4279854987
5.7439365 0.78114796 -1.1831234 4279922063
5.7457108 0.74551159 -1.1825043 4280775824
5.7404656 0.70904374 -1.1804405 4280969343
5.7369337 0.67289621 -1.1787895 4282153619
5.7477622 0.63843805 -1.1802341 4281299599
5.7496247 0.60295445 -1.1798214 4280249480
5.75419 0.56776005 -1.1800277 4279987852
5.7458735 0.53136188 -1.1775513 4278860883
5.7227049 0.49382636 -1.1719792 4280297515
5.7090464 0.45737594 -1.1684707 4283187517
1.8904576 0.14004309 -0.36030635 4284899402
1.8795666 0.12764767 -0.35782984 4282004516
1.8754312 0.11581191 -0.35679796 4282468416
1.8575439 0.10327415 -0.35287684 4281941813
1.8513018 0.091537699 -0.35143223 4282005035
1.8420529 0.079755396 -0.34936848 4283188533
1.8170847 0.06751211 -0.34400272 4282792232
1.8037724 0.055939727 -0.34111348 4284172597
1.788431 0.044485018 -0.33781147 4285094721
1.7329068 0.032477893 -0.32604811 4284899402
1.7047 0.021493053 -0.32006323 4280690466
1.7106705 0.011069469 -0.32130149 4280756520
1.6999431 0.00057161006 -0.31903136 4281150765
1.7018714 -0.0098708495 -0.31944409 4281545523
1.6949301 -0.020229846 -0.31799948 4281677109
1.6986872 -0.030700976 -0.31882498 4282137660
1.6955324 -0.041051626 -0.31820586 4283585615
1.6747103 -0.050826382 -0.31387198 4285426022
5.7283831 -0.2099767 -1.1695026 4281544509
5.7240548 -0.24499573 -1.1688836 4291219404
5.6862831 -0.27834079 -1.1612476 4288456868
5.6981463 -0.31398052 -1.1641369 4288063393
5.634584 -0.34516445 -1.1511352 4288851367
5.6587191 -0.38151005 -1.1567074 4287273364
5.6562715 -0.41622406 -1.1567074 4287865760
5.6975026 -0.45442617 -1.1659943 4287998118
5.6955819 -0.48946071 -1.1662006 4287800739
5.6924715 -0.52439892 -1.1662006 4287800484
5.6920686 -0.55960482 -1.1668198 4288326314
5.6729565 -0.59289175 -1.1635177 4284706408
5.7061682 -0.63178343 -1.17136 4278326045
5.7187052 -0.66871703 -1.1748683 4279449174
5.7203207 -0.7045117 -1.1761067 4280175474
5.7100682 -0.73884392 -1.1748683 4280046200
5.7131839 -0.77491897 -1.1765194 4282934643
4.7192178 -0.6695472 -0.96581054 4284709506
5.7342172 -0.8495611 -1.1831234 4279644482
5.7259951 -0.8842814 -1.1825043 4283654500
5.6992083 -0.91598147 -1.177964 4283322173
4.7882233 -0.79967415 -0.9843843 4283519035
4.768765 -0.82653141 -0.98128867 4283849289
4.776123 -0.85802662 -0.9839716 4282270786
5.6134472 -1.0441155 -1.1647561 4281421924
5.5973263 -1.0766904 -1.1626923 4281618526
4.7691174 -0.94770193 -0.98603523 4287006090
4.7900505 -0.98245364 -0.99181378 4294175469
4.7724452 -1.0093957 -0.98933733 4286345583
5.0185509 -1.0936823 -1.0438203 4281805088
5.0365682 -1.1300263 -1.049186 4280884243
5.0333533 -1.1617894 -1.0500115 4289239195
5.0223217 -1.1917477 -1.049186 4294305004
4.2972002 -1.0475194 -0.89337295 4282793018
4.2793012 -1.071015 -0.89089644 4284701520
4.2385321 -1.0884875 -0.8834669 4283913285
4.2100115 -1.1087407 -0.87872028 4282729270
4.1889591 -1.1307257 -0.87562466 4282334002
4.1442199 -1.1459727 -0.86736965 4286216046
4.1408763 -1.1724463 -0.86819518 4286412914
4.7980323 -1.3904341 -1.0141023 4291150261
5.1158681 -1.5166557 -1.0859208 4285232243
3.1695886 1.0687815 -0.70736784 4294507755
3.2048106 1.058814 -0.71412504 4286086503
4.0954332 1.1880835 -0.91269833 4284771438
4.0848069 1.1578703 -0.90855688 4294243831
4.1247525 1.1419072 -0.91618592 4289638323
4.145813 1.1203997 -0.91945547 4293848812
4.1903543 1.1049041 -0.92817444 4286805613
5.0637522 1.302271 -1.1280556 4287528038
5.0811133 1.2735507 -1.1302353 4294966499
5.0916762 1.2430447 -1.1308892 4288517763
5.1001568 1.2120051 -1.1311072 4281608216
5.0723176 1.1725475 -1.1230422 4292984730
5.0965552 1.1452576 -1.1269658 4294821795
5.1158814 1.1166726 -1.1297994 4293114023
5.1713271 1.0955878 -1.140916 4291214512
5.3806124 1.1055207 -1.1871263 4292277991
5.4160085 1.0782077 -1.1936654 4291100402
5.4474378 1.0497624 -1.1993327 4290574572
5.4825583 1.0216875 -1.2058719 4292541943
5.496408 0.98941278 -1.2076157 4292999927
5.5321827 0.96085232 -1.2143729 4281096542
5.5889883 0.93543851 -1.2259254 4280246390
5.6081123 0.90330309 -1.228977 4280512654
5.6231933 0.87037015 -1.2311567 4279659148
5.6390467 0.83742958 -1.2335545 4280706957
5.6827273 0.80831873 -1.2422733 4280313482
5.6991844 0.77501541 -1.244889 4280051852
5.7231884 0.74254662 -1.2492485 4280113521
5.7218256 0.70669687 -1.2479407 4281953154
5.7561016 0.67510539 -1.2546978 4280511112
5.7475262 0.63837075 -1.2518642 4280182923
5.7591004 0.60390848 -1.253608 4280313228
5.7626972 0.56855989 -1.253608 4280114561
5.7446976 0.53120869 -1.2488126 4280372332
5.7478495 0.49594986 -1.2488126 4281681494
5.6904688 0.45582852 -1.2352983 4293453280
1.8613408 0.13682304 -0.37713891 4280032274
5.7073188 0.38675758 -1.237914 4285362556
5.6978951 0.35100836 -1.2352983 4288129710
1.8654928 0.10264712 -0.37757486 4281610025
1.8553652 0.090668008 -0.37517715 4282068518
1.8558865 0.079281986 -0.37517715 4282461989
1.8534123 0.067784131 -0.37452322 4283514677
1.8537933 0.056410536 -0.37452322 4285292628
1.8482506 0.044888936 -0.37321541 4286215009
1.7030996 0.030816857 -0.34073743 4284965973
1.6934978 0.020242874 -0.33855769 4280821800
1.6935902 0.0098513849 -0.33855769 4280887595
1.6975225 -0.0005390264 -0.33942959 4281150765
1.7023671 -0.01098295 -0.34051946 4281479730
1.698364 -0.021381814 -0.33964756 4281611316
1.6982008 -0.031802379 -0.33964756 4282203453
1.7048035 -0.042386867 -0.34117338 4284111188
1.7054868 -0.052876119 -0.34139135 4284374360
5.7945914 -0.21244481 -1.2553518 4280362540
5.691771 -0.24367517 -1.2326826 4279901986
5.7038164 -0.27926001 -1.2357342 4290364608
5.70297 -0.31430626 -1.2359521 4287866528
5.6775546 -0.34786543 -1.2307208 4288653990
5.660707 -0.38171378 -1.2274512 4290165435
5.6582584 -0.41644007 -1.2274512 4287141012
5.6935391 -0.45416945 -1.2359521 4287208347
5.691617 -0.48917916 -1.2361702 4287472544
5.693368 -0.52453977 -1.23726 4287472544
5.6958704 -0.56003553 -1.2385678 4287405461
5.696209 -0.59537917 -1.2394397 4287206540
5.6943889 -0.63053375 -1.2398757 4278194720
5.7282181 -0.66987526 -1.2483766 4280172384
5.7288437 -0.70560592 -1.2494664 4279385439
5.7292452 -0.74136937 -1.2505563 4283924628
4.7294173 -0.64172482 -1.0262622 4282471514
5.7226157 -0.81203097 -1.2512102 4279575611
5.717525 -0.84712905 -1.2512102 4280701046
5.6958218 -0.87966609 -1.2475047 4282014564
5.6575546 -0.90933937 -1.2400936 4282074159
4.7951078 -0.80111057 -1.0460978 4283058227
4.790103 -0.83051771 -1.0460978 4282663477
4.7714677 -0.85748005 -1.0430461 4282470483
5.5615697 -1.0345376 -1.2237457 4280504944
5.5359483 -1.0649599 -1.2193862 4280243316
5.5092072 -1.0949168 -1.2148088 4281686383
5.4383268 -1.1155739 -1.2002046 4278258969
5.4218307 -1.146904 -1.1980249 4279178790
4.7566991 -1.036884 -1.0476235 4279703319
4.7607231 -1.0683992 -1.0500213 4284964968
4.7312541 -1.0923265 -1.0447899 4292597209
5.2553053 -1.2471954 -1.1666368 4282596671
5.2210031 -1.2729506 -1.1605335 4281017121
4.9565129 -1.240793 -1.1014628 4286477426
4.9270635 -1.2656027 -1.0964495 4291411126
4.8059473 -1.2660042 -1.0702927 4282527792
4.7811279 -1.290894 -1.0663692 4282134059
4.8079228 -1.3298242 -1.0744343 4279306240
4.8982763 -1.3872005 -1.0973214 4290424996
4.9112339 -1.4234736 -1.1023347 4289766803
4.9229937 -1.4596804 -1.1071302 4291541159
4.912076 -1.4892939 -1.1066942 4292858569
4.5107627 -1.520286 -1.0234286 4284112741
4.5747981 -1.6679449 -1.0478415 4292799200
4.5059223 -1.6742431 -1.0338913 4293257437
4.5658522 -1.7284482 -1.0506752 4288916130
3.0630083 1.075592 -0.72570831 4286942861
3.0759928 1.0589947 -0.72731507 4294573540
3.0861218 1.041345 -0.72823322 4280230677
4.0694308 1.2081171 -0.96121651 4285627261
4.0515285 1.1758028 -0.95501894 4284572011
4.0605397 1.1514517 -0.95547801 4289173148
4.121933 1.1415772 -0.96879131 4284832604
4.1692629 1.1271833 -0.9786616 4286872185
4.1657481 1.0988501 -0.97613662 4288777866
4.9623404 1.2763865 -1.1684912 4287460194
4.9776316 1.2478069 -1.1703275 4280225536
4.9710112 1.2137793 -1.1668844 4280028160
4.9679489 1.1807801 -1.1643595 4281013777
4.945703 1.1434807 -1.1572437 4282458904
4.9725685 1.1175932 -1.1620641 4294503387
5.2227674 1.1401871 -1.2208264 4292802548
5.2782259 1.1184055 -1.2325329 4291491058
5.3116841 1.0914812 -1.23896 4291951861
5.3450093 1.0641882 -1.2453872 4292607735
5.3676858 1.034502 -1.2492893 4292476921
5.3892417 1.0043992 -1.252962 4292542456
5.4556518 0.98217267 -1.267423 4291624948
5.4826727 0.95234191 -1.2724729 4290967274
5.5104918 0.92237711 -1.2777523 4291230446
5.5362267 0.89179713 -1.2825726 4290835949
5.5560226 0.86004305 -1.2860157 4280180066
5.5881519 0.82993746 -1.2924429 4280841106
5.6162658 0.79892176 -1.2979518 4280448405
5.638422 0.76680565 -1.3020836 4281035138
5.6594296 0.73432249 -1.3059857 4286096826
5.6812158 0.70172942 -1.3101175 4280575112
5.7028151 0.66889668 -1.3142492 4279853447
5.7397017 0.63754332 -1.3220536 4280114822
5.740602 0.60200882 -1.3213649 4279917441
5.7751827 0.56983 -1.3287102 4280047989
5.7766323 0.53420436 -1.3282511 4280702051
5.7798014 0.49874952 -1.3282511 4285232503
5.7798424 0.46304294 -1.3275626 4282399051
1.8630732 0.1380201 -0.40067941 4279307530
1.8580585 0.12619139 -0.39930218 4284572777
1.8665695 0.1152665 -0.40113851 4292338147
1.8614107 0.10348832 -0.39976126 4289576127
1.8658992 0.092256419 -0.40067941 4288723128
1.848927 0.080051579 -0.3965477 4291089360
1.8445202 0.06852562 -0.39539999 4279901209
1.8497701 0.057356376 -0.3965477 4283649090
1.8335462 0.045597453 -0.39264551 4284109633
1.683929 0.03157087 -0.35729635 4288058753
1.701609 0.021454783 -0.36142805 4280230172
1.6910026 0.010946641 -0.35890311 4280756268
1.6900647 0.00057053246 -0.35867357 4280953386
1.7056088 -0.0098933745 -0.36234623 4281413937
1.7084358 -0.02039412 -0.36303484 4281545523
1.7092515 -0.030894309 -0.36326438 4282072380
1.721679 -0.041690636 -0.3662484 4283848791
1.7369562 -0.052729867 -0.36992103 4284110159
1.7424358 -0.06360095 -0.37129828 4279898893
5.8037534 -0.24841228 -1.3300874 4280954174
5.7758722 -0.28273219 -1.3238899 4285625980
5.7555637 -0.31714824 -1.3195286 4288062112
5.7389374 -0.35156411 -1.3160855 4287799192
5.6434479 -0.38047937 -1.2940496 4287598988
5.6545959 -0.41610068 -1.2972633 4287072384
5.7635112 -0.4596954 -1.3236604 4288456350
5.774158 -0.49621865 -1.3268739 4287534998
5.7758508 -0.5320856 -1.3280216 4287666077
5.7695713 -0.56722969 -1.327333 4289310912
5.7688861 -0.60292405 -1.3280216 4287337889
5.7689476 -0.63873863 -1.3289398 4280563528
5.7591195 -0.67344564 -1.3275626 4280040030
5.7539129 -0.70865119 -1.327333 4280634224
5.7378736 -0.74244368 -1.3245785 4281227901
5.6984892 -0.77292484 -1.3163151 4284445063
4.7232561 -0.67012048 -1.0851681 4284311171
5.6548777 -0.83780116 -1.3082812 4280305785
5.6467452 -0.87203717 -1.3075925 4280896093
5.6028504 -0.90048808 -1.2984109 4282339141
4.810987 -0.80347782 -1.1104175 4282664497
4.8050075 -0.83281606 -1.110188 4281480230
4.8304615 -0.8677929 -1.1175333 4293390832
5.5226078 -1.0272129 -1.284868 4282079601
5.4684124 -1.0518837 -1.273391 4282015352
5.3778486 -1.068717 -1.2531915 4279378228
5.3702369 -1.1014992 -1.252962 4279048495
5.3348107 -1.1283853 -1.2460757 4281355364
5.3325415 -1.1621345 -1.2472235 4280573045
5.3072662 -1.1907827 -1.2428622 4280505959
5.2818413 -1.2191645 -1.238501 4281882984
5.233541 -1.2418846 -1.2286307 4281157197
4.7870688 -1.1669791 -1.1221241 4282535752
4.7684889 -1.1934934 -1.1193696 4286218607
4.8072672 -1.2345965 -1.130617 4287597689
4.8024254 -1.264814 -1.1313057 4281214489
4.8340392 -1.3049139 -1.1409464 4286806381
4.8325076 -1.3363669 -1.1425532 4290488982
4.8373275 -1.3697067 -1.1457667 4289698441
4.8344407 -1.4009881 -1.147144 4290752665
4.8322854 -1.4325622 -1.1487508 4290882711
4.8196793 -1.461056 -1.1478326 4291867816
4.7920303 -1.4848386 -1.1432418 4291277990
4.6130261 -1.4604412 -1.101236 4287660145
4.5761962 -1.4797328 -1.0943497 4288846453
4.5790453 -1.5117517 -1.0973338 4288321380
4.5503144 -1.5332913 -1.0925134 4294834919
4.5086069 -1.5501044 -1.0844795 4294835961
4.584425 -1.6077008 -1.1058267 4294769390
4.5204043 -1.6164602 -1.0922838 4289435760
4.4957705 -1.6388319 -1.0886112 4291077726
4.4856296 -1.6663866 -1.0886112 4291606392
4.4944358 -1.7011153 -1.0934316 4294964690
4.5057087 -1.737065 -1.0989405 4294704877
3.0069709 1.0759282 -0.75203729 4288456359
3.0409877 1.0671088 -0.7592594 4294901224
3.0970328 1.065498 -0.77225912 4281611806
3.097075 1.0443017 -0.77057397 4279903509
4.0830116 1.2664144 -1.0202175 4282075978
4.089777 1.2410555 -1.0199767 4281875264
3.9307723 1.1664643 -0.97688496 4292928215
4.1000385 1.1894208 -1.0187731 4290952618
4.7972841 1.3600392 -1.1966772 4294965734
4.8214397 1.3349847 -1.2007697 4285553478
4.8126755 1.3008133 -1.1964364 4293314474
4.8205667 1.2712587 -1.1964364 4293643172
4.8188767 1.2392368 -1.1940291 4294033292
4.8593397 1.2179118 -1.2024549 4294491022
4.8327785 1.1797781 -1.1937884 4294294922
4.8437033 1.151001 -1.1947513 4291208821
4.8790431 1.1278234 -1.2019734 4292922545
5.0279102 1.1298162 -1.2380838 4293130996
5.1390519 1.1217357 -1.2645649 4291490799
5.1933112 1.1002505 -1.2766017 4292345852
5.2446475 1.0775548 -1.2879163 4293263096
5.2711496 1.0493377 -1.2929717 4293656573
3.3114157 0.63766807 -0.79633278 4292607992
5.3370609 0.99454224 -1.306453 4292542196
5.3755393 0.96762913 -1.314638 4292214773
5.4091067 0.93944961 -1.3216193 4292279283
5.4358287 0.9097715 -1.3269155 4292607221
5.4700546 0.88103688 -1.3341376 4290764255
5.491663 0.84998393 -1.3382301 4286424233
5.5322962 0.8215543 -1.3471373 4289914859
5.5574117 0.79046768 -1.3521929 4280968817
5.5823531 0.75910378 -1.3572483 4285570733
5.6042309 0.72708815 -1.3615816 4281493115
5.6143661 0.69340253 -1.3630259 4280446085
5.6561093 0.66335732 -1.3724147 4280380547
5.6639318 0.62906897 -1.3733777 4280510081
5.6985741 0.59754926 -1.3810812 4281033085
5.7137241 0.56371814 -1.38397 4281095529
5.7296395 0.52981311 -1.3870996 4285501851
5.7550225 0.49657029 -1.3926365 4281161057
1.8367826 0.14633942 -0.41693237 4280559655
1.8318383 0.13463579 -0.41548795 4279176714
1.8326299 0.12339333 -0.41548795 4279835944
5.8148818 0.35823908 -1.404914 4280894040
5.8160009 0.32249901 -1.4046733 4280301652
5.8178706 0.28680658 -1.4046733 4280169286
5.7778244 0.24929591 -1.3943217 4282270285
1.8336128 0.067047521 -0.41500646 4283849292
1.83787 0.055915959 -0.41596943 4285492574
1.8440003 0.044783022 -0.41741383 4285425746
1.7025591 0.030806711 -0.38226634 4287136624
1.6959225 0.020273529 -0.3805812 4279242760
1.6940738 0.0098545328 -0.38009971 4280756009
1.7047789 -0.00053633517 -0.3827478 4281216558
1.703773 -0.010991056 -0.38250709 4281611316
1.7104671 -0.02152586 -0.38419223 4281611316
1.7229185 -0.032248255 -0.3873218 4282269759
1.72851 -0.042960033 -0.38876623 4283914574
1.7369453 -0.053829879 -0.39093286 4285622109
1.7598609 -0.065335318 -0.39671052 4286937716
5.7943935 -0.24804752 -1.3984143 4278325526
5.800518 -0.28397468 -1.4003401 4278850332
5.7889748 -0.31902856 -1.3979328 4287532183
5.7830334 -0.35430637 -1.3969698 4280161308
5.7759085 -0.38945824 -1.3957661 4292201420
5.5159254 -0.405994 -1.3317302 4280822051
5.8171358 -0.46400324 -1.4073215 4283782736
5.799674 -0.49844405 -1.4037104 4283717723
5.7810416 -0.53259927 -1.3998586 4283519840
5.7709036 -0.56739759 -1.3981735 4279969071
5.7489715 -0.60088319 -1.3935995 4280496444
5.7268472 -0.634121 -1.3890254 4279839805
5.7160997 -0.66846061 -1.3873403 4280697183
5.6984038 -0.70186299 -1.38397 4280238436
5.6737757 -0.73420292 -1.3789146 4279651181
5.6605077 -0.76783037 -1.376748 4284316049
5.6316652 -0.79914397 -1.3707296 4278524469
5.6208949 -0.83283186 -1.3692851 4280176495
5.5821047 -0.86212718 -1.3608594 4280372317
5.5508356 -0.89220864 -1.3543595 4281944390
4.8147902 -0.80439389 -1.1706777 4283059003
4.8250656 -0.83657104 -1.1745294 4281282592
4.8074222 -0.86393249 -1.1713998 4292138439
5.4404302 -1.0120296 -1.3324524 4283784292
5.3340368 -1.0261612 -1.3071752 4279708737
5.3723845 -1.0677539 -1.3184898 4279576900
5.2620907 -1.0794609 -1.2922494 4280762716
5.3123455 -1.1237682 -1.3066937 4280896871
5.2901764 -1.1530392 -1.3028419 4280569446
5.2650075 -1.1814436 -1.298268 4280699999
5.2198286 -1.2050022 -1.2886385 4280568668
5.1821156 -1.2298425 -1.2809349 4280371036
5.0848846 -1.2397945 -1.258065 4280567904
4.9613662 -1.2420068 -1.2284544 4278722351
4.9583526 -1.273632 -1.229658 4280230700
4.7777362 -1.25858 -1.1853626 4279635721
4.7127609 -1.2724525 -1.1706777 4289699476
4.7048645 -1.3013455 -1.1706777 4290222479
4.6575665 -1.3190908 -1.1605668 4290879884
4.6493855 -1.3476442 -1.1605668 4291014037
4.6922126 -1.3913103 -1.1738073 4294698446
4.7012362 -1.4254216 -1.1783812 4294893257
4.68962 -1.4533796 -1.177659 4293314223
4.6713605 -1.4791994 -1.1752517 4283709474
4.5606041 -1.4750047 -1.1487707 4285750584
4.4980083 -1.4853216 -1.1348079 4288974931
4.4510965 -1.5001925 -1.1249378 4288646726
4.439054 -1.5265296 -1.1242156 4291871381
4.4332676 -1.5550225 -1.1251786 4294834131
4.4574599 -1.5942808 -1.1340858 4294900976
4.4731283 -1.6309042 -1.1408263 4294967274
4.4775958 -1.6637256 -1.1446781 4290422904
4.4718418 -1.6928853 -1.1458819 4289040213
4.4713326 -1.724131 -1.1485299 4294240438
4.472415 -1.7561429 -1.1516595 4292269758
4.0630264 1.5103817 -1.0896082 4287667095
4.0567627 1.479787 -1.0853202 4291611323
4.084661 1.4334167 -1.0880948 4281940790
3.1682618 1.0901332 -0.83308196 4287863710
3.174891 1.0706724 -0.83308196 4282273609
4.0056047 1.323392 -1.0593396 4281352253
4.0652084 1.315468 -1.073465 4286415747
4.0510635 1.2834872 -1.0674113 4288061338
3.8544512 1.1693659 -1.0096487 4294241254
3.9478319 1.1712825 -1.0331069 4280949524
4.1268821 1.1968857 -1.0797709 4293580742
