# .PCD v0.7 - Point Cloud Data file format
VERSION 0.7
FIELDS x y z rgb
SIZE 4 4 4 4
TYPE F F F U
COUNT 1 1 1 1
WIDTH 1109
HEIGHT 1
VIEWPOINT 0 0 0 1 0 0 0
POINTS 1109
DATA ascii
35.248432 -7.6694841 1.793373 4285165419
35.087654 -7.8602962 1.7877266 4285494641
35.032925 -8.0740967 1.7874346 4285890171
34.891361 -8.2672577 1.7828591 4285559923
23.444586 -5.7075748 1.2113121 4285428337
23.283154 -5.8198395 1.2049842 4285361768
33.626232 -9.7327671 1.7413876 4285559409
33.531403 -9.9287024 1.7396352 4284703849
33.411808 -10.340913 1.7398787 4279969062
21.388237 -6.7641568 1.1286124 4292337117
21.290253 -6.8771539 1.1257405 4294573566
21.252396 -7.009223 1.125984 4294506744
21.147457 -7.118784 1.12282 4294769914
21.097712 -7.2464619 1.122528 4291349191
20.883173 -7.3163424 1.1137664 4294836222
20.575457 -7.3506041 1.100186 4294573050
20.48398 -7.4599686 1.0978009 4294901241
20.494005 -7.6063647 1.1007214 4294967034
20.455357 -7.7351499 1.1011595 4294967291
20.444792 -7.8748746 1.1031065 4294835961
20.382141 -7.9947028 1.1023763 4294178031
20.306728 -8.1092443 1.1010134 4294901755
20.150177 -8.1904449 1.0954158 4294770168
19.945402 -8.2501812 1.0872869 4293849325
20.152184 -8.4808769 1.1009161 4284047969
20.411047 -8.7376032 1.1174171 4284903278
20.770082 -9.04247 1.1393697 4283850588
21.206501 -9.387641 1.1656058 4285363825
31.208828 -14.044481 1.7032261 4285428588
31.013067 -14.185859 1.697385 4285691760
30.742477 -14.290841 1.6875526 4285625970
30.602734 -14.45489 1.6847781 4285889149
30.550385 -14.660109 1.6867738 4285363324
30.416759 -14.826282 1.6844373 4284706167
30.362812 -15.031246 1.6864817 4283457382
30.322664 -15.243733 1.6893536 4287471005
30.226778 -15.428594 1.6892562 4283982176
30.118238 -15.606879 1.688526 4284967272
30.013954 -15.787204 1.6880879 4284177752
29.21242 -16.76639 1.676844 4284705645
29.119352 -16.951347 1.677428 4283784543
28.995871 -17.118532 1.6763572 4284048226
28.886002 -17.29356 1.6761138 4283785054
17.425409 7.5992513 0.72935897 4294440666
17.507528 7.5075469 0.73078126 4294703846
17.58181 7.4120154 0.73191178 4286743158
17.793139 7.3728514 0.73847628 4294770670
18.143475 7.3878994 0.75051111 4290165166
18.254343 7.3027864 0.75310045 4285362279
18.365776 7.2169566 0.75572622 4284441947
18.492689 7.1361494 0.75897199 4284309338
18.577246 7.0381231 0.76057667 4284309081
18.669725 6.942462 0.76250952 4284375384
18.703524 6.8246932 0.76218134 4284112212
18.644373 6.6737676 0.75827909 4284112210
18.585022 6.5241575 0.75441337 4284441169
18.688013 6.431788 0.7568568 4284769880
18.782995 6.3358431 0.75900847 4284900689
18.904068 6.2477546 0.76218134 4285033042
19.015259 6.1553402 0.76498944 4285493079
19.148886 6.0690422 0.76867282 4286149978
19.271666 5.9780774 0.77195507 4285953369
19.431343 5.8971515 0.77665961 4285821783
19.565838 5.8070974 0.78041595 4285690456
19.690361 5.7128291 0.78380758 4285559901
19.829842 5.6216111 0.78778273 4285952864
19.919821 5.5152969 0.78989798 4286477919
20.038183 5.4159117 0.79310727 4285095500
18.614815 4.9088717 0.73814803 4291411891
18.651361 4.7963023 0.73840332 4285228122
20.541609 5.1481848 0.80842435 4281610789
20.638826 5.0381608 0.81090426 4286743411
20.765606 4.9342985 0.81451476 4291085482
20.90941 4.8331199 0.81878167 4283256117
21.020576 4.7231326 0.82184505 4288125066
21.245409 4.6368918 0.82917541 4292730325
21.386866 4.5304666 0.83340585 4294439660
21.502361 4.4172511 0.8366881 4294966253
21.689798 4.3172231 0.84266907 4294967016
21.867981 4.2133584 0.8483218 4284700227
21.975946 4.0944734 0.85138518 4290689184
22.049833 3.9684043 0.85320866 4291148191
22.105272 3.8385048 0.85437566 4291937190
22.105743 3.6990044 0.8535369 4291149976
22.136902 3.5647259 0.85386509 4294110672
22.105028 3.420578 0.85189575 4290163367
22.189854 3.2944181 0.85426629 4288780948
3.9456158 0.56138545 0.1810431 4279832838
21.447319 2.9156675 0.82549202 4289174154
21.470753 2.7847855 0.82571083 4294635204
22.947372 2.8332188 0.87939364 4294964173
3.8222268 0.44844624 0.17604682 4284111959
3.7543867 0.41715679 0.1734575 4283322694
2.8340008 0.2622768 0.13946812 4283849556
2.8186309 0.24342333 0.13884814 4291611300
24.226305 1.9396158 0.92253679 4294309078
2.3121333 0.17119402 0.12021233 4283847749
2.289211 0.15538365 0.11933707 4284441945
2.2502234 0.13887882 0.1178783 4292203977
1.9127773 0.10633345 0.1055152 4281213979
1.8115848 0.089582197 0.10179534 4282660142
1.8051115 0.078163706 0.10154005 4281806375
1.7825882 0.066237763 0.10070126 4282662715
1.7719736 0.054960366 0.1003001 4292397518
1.7293192 0.043027449 0.098731913 4284367690
1.7075691 0.032008659 0.097929589 4282065448
1.6857495 0.021258419 0.097127266 4281803816
1.675855 0.010852044 0.096762568 4282001448
1.6698941 0.00056833221 0.096543759 4282000935
1.6628709 -0.0096357968 0.096288472 4282591782
1.6637797 -0.019850954 0.096324943 4284038200
1.6666242 -0.030114198 0.096434347 4286271552
1.6793956 -0.040657252 0.09690845 4287784020
27.757818 -1.0189626 1.0492675 4294834133
27.853884 -1.1936707 1.0530238 4294832351
27.941854 -1.3692534 1.0565249 4280817162
27.96286 -1.5423269 1.057619 4294830544
27.993767 -1.7163829 1.0591142 4293645742
28.905994 -1.9504279 1.0928848 4294568641
29.079853 -2.1414821 1.0997045 4294768075
29.517427 -2.3558953 1.1162251 4293649859
29.867821 -2.5683932 1.1296093 4293585087
29.985844 -2.7639952 1.1345327 4291939241
29.892735 -2.9404967 1.1317611 4283846461
30.017252 -3.138828 1.1370126 4280492574
30.05901 -3.3297737 1.1392738 4293847783
30.394342 -3.5558412 1.1523663 4294899180
30.746866 -3.78847 1.1661516 4287134828
30.993601 -4.012085 1.1761078 4290094475
31.379358 -4.2579517 1.1912425 4294963918
31.782043 -4.5113702 1.2070701 4293777330
32.077015 -4.75421 1.2189956 4293383613
32.413651 -5.0075507 1.2325257 4294701013
32.75922 -5.2669454 1.246457 4294570195
32.813019 -5.4823465 1.2496663 4294701268
33.857662 -6.0848908 1.2909861 4291410345
33.691967 -6.2687573 1.286245 4290488992
21.220385 -4.0830078 0.82421559 4283581244
21.200815 -4.2143064 0.8244344 4281278752
21.207842 -4.3511419 0.82567436 4281871917
22.391901 -4.8811889 0.8719539 4282137147
22.349829 -5.0158648 0.87151623 4280887593
22.325447 -5.1544809 0.87177151 4280296487
23.319195 -5.534862 0.91024667 4286875795
23.235281 -5.6657672 0.90838671 4288651680
23.210741 -5.8108988 0.90878785 4284308567
23.265633 -5.9765821 0.91221601 4280294175
24.494457 -6.4527388 0.95999074 4280031783
24.426424 -6.5953574 0.95893317 4283981931
20.6474 -6.260457 0.82297564 4285497490
20.654415 -6.4012299 0.82472616 4284245366
20.610937 -6.5266361 0.82458025 4283651161
20.508698 -6.6329889 0.82220978 4282729797
20.390749 -6.7333202 0.81925577 4294440689
20.319695 -6.8484139 0.81812519 4294178022
20.260281 -6.9671144 0.81746876 4292270275
20.199232 -7.0850134 0.81677586 4290230442
20.054697 -7.1728077 0.8128736 4294506993
19.961487 -7.277925 0.81097722 4294441460
19.62606 -7.2923632 0.79967177 4294375667
19.442627 -7.3602829 0.79427427 4294506996
19.360735 -7.4654198 0.79285198 4294638581
19.343399 -7.5953975 0.79398257 4283651148
19.319628 -7.723218 0.79489428 4294638582
19.309828 -7.8570576 0.79638952 4294178288
19.436682 -8.0480347 0.80331868 4294441464
19.947786 -8.4034281 0.8255285 4294573815
20.137428 -8.6291924 0.8351199 4294046957
20.542158 -8.95222 0.85335457 4282598460
30.599123 -13.78448 1.2603518 4281478449
30.413111 -13.925792 1.2563037 4281939000
30.308065 -14.103286 1.2555379 4282269254
30.192049 -14.275318 1.2543708 4283389016
30.10659 -14.461603 1.2544802 4286020476
29.905924 -14.591722 1.249958 4284572260
29.966257 -14.849492 1.2560849 4287793548
29.839764 -15.015563 1.2546626 4288187018
19.441853 -10.083991 0.83486462 4286481536
19.372538 -10.19937 0.83457285 4290888638
19.260233 -10.29167 0.83253056 4285615701
19.217806 -10.421088 0.83340585 4287580250
19.133364 -10.52773 0.83256704 4285806145
20.474112 -11.429699 0.8913191 4290485402
20.171423 -11.42362 0.88158178 4290555302
19.864388 -11.411274 0.87162566 4292070598
28.459709 -17.053425 1.246384 4283784015
17.097866 7.4600482 0.48844522 4294372036
17.226 7.3904767 0.49062839 4292858546
17.357603 7.321167 0.49290863 4293055671
17.454838 7.2363505 0.49429131 4293253050
17.584084 7.1638198 0.49652302 4283386420
17.689892 7.0806851 0.49814829 4283586887
17.80092 6.9987159 0.49991909 4284705628
17.915339 6.9170904 0.50178695 4284835165
18.058399 6.8453093 0.50440681 4284636503
18.156279 6.7552958 0.50586224 4285030743
18.279081 6.6735969 0.50797266 4282860346
18.381804 6.5835643 0.5095737 4284044368
18.504854 6.4998116 0.51170838 4283584328
18.646469 6.4213057 0.51432818 4285229143
18.770767 6.3355513 0.51651132 4288519046
18.889013 6.2466278 0.51854903 4294637791
19.028749 6.1635776 0.52114463 4294440414
19.136724 6.0690708 0.52293968 4294703066
19.273851 5.9826593 0.52548671 4294110412
19.406811 5.8936315 0.5279367 4293056956
19.552814 5.8071804 0.53072637 4292200105
19.662001 5.7085648 0.5325942 4291937960
19.69762 5.5880861 0.53261846 4292660656
19.722866 5.4647155 0.53240013 4293449918
19.744444 5.3404622 0.53210902 4282067991
18.650757 4.9219637 0.50384885 4294636772
18.676733 4.8064351 0.50375181 4294768348
19.876247 4.9853711 0.53303087 4292596142
19.989981 4.883728 0.53511703 4293121454
20.118773 4.7845778 0.53759128 4292595104
20.263653 4.6878614 0.54047799 4293910974
20.42956 4.5943727 0.54389828 4282989611
20.545265 4.4881396 0.54608148 4283319354
20.715197 4.3922744 0.54962313 4293253828
20.823032 4.2818022 0.55163652 4292923824
21.00872 4.1858039 0.55559051 4292727989
21.139042 4.0770807 0.55818611 4284308803
21.287485 3.9703999 0.56124258 4285624402
21.413769 3.8581483 0.56376535 4292596655
21.610386 3.7568281 0.56803471 4292068768
21.756273 3.6448123 0.57106692 4294570195
21.906532 3.5319428 0.57422042 4291676338
21.993984 3.4077194 0.57584572 4292729794
4.0296197 0.59808367 0.1346467 4294767857
22.383512 3.1873302 0.58440864 4284042058
21.45072 2.9202802 0.56109703 4287135081
21.483105 2.7905388 0.56146085 4293518271
22.970177 2.8405728 0.5974108 4294965728
23.031853 2.7048264 0.5985024 4279175938
3.8044841 0.42216194 0.12867931 4290230963
3.7791641 0.39588523 0.12800008 4282400570
3.0751746 0.30285561 0.11077712 4294439395
3.0162535 0.27835369 0.1092974 4282861124
3.0119286 0.25932419 0.10915186 4289834653
23.441658 1.8814244 0.60643464 4294834392
2.2691507 0.16705699 0.091007099 4282466347
2.3070374 0.15563898 0.09190464 4284373842
2.0654829 0.12649386 0.086010017 4290162086
1.8715787 0.10298582 0.08127977 4288518801
1.7962906 0.087743893 0.079436183 4288124561
1.8267584 0.078019299 0.080163911 4286281588
1.7752538 0.06487637 0.078902513 4286018667
1.7586318 0.053454772 0.078490131 4283912529
1.7369398 0.0421151 0.07795646 4294242034
1.6651994 0.030105066 0.076209903 4280291598
1.6563562 0.019773278 0.075991586 4282132262
1.6484488 0.0095576551 0.075797528 4282132008
1.6494762 -0.00055684597 0.075821787 4282263078
1.6434436 -0.010643251 0.075676233 4282854184
1.6533437 -0.020846002 0.075918809 4284563000
1.6551837 -0.031026399 0.075967327 4286533956
1.673951 -0.041640937 0.076428227 4287915094
26.777239 -0.97748893 0.68597561 4293583045
26.890593 -1.1468792 0.68888658 4280291857
27.17362 -1.3260219 0.69594556 4280686615
27.38657 -1.5048987 0.70133078 4291083690
27.737043 -1.6949079 0.71008778 4292331948
28.005411 -1.8838425 0.71687996 4291805856
28.242582 -2.0739381 0.72294438 4292002975
28.522312 -2.2705035 0.73007613 4293384369
28.654259 -2.4580245 0.73364204 4294964421
29.106529 -2.6768086 0.74504316 4294964430
29.477579 -2.893424 0.75450361 4294636505
29.681002 -3.0973706 0.75991309 4294373854
30.09964 -3.3278627 0.77061075 4292202685
30.103477 -3.5153859 0.77121717 4290816658
30.08531 -3.7005191 0.7713142 4289368181
30.181013 -3.9004207 0.77422512 4289369464
30.454702 -4.1259208 0.78152668 4287265887
30.734667 -4.3560467 0.78902233 4285951059
30.919981 -4.5760083 0.79423773 4283188269
21.776508 -3.4967685 0.57096988 4288448890
21.717173 -3.6240697 0.57004809 4286606433
21.924044 -3.7969928 0.57570016 4287727486
22.125668 -3.9718833 0.58125514 4282005298
22.35741 -4.1552334 0.5875864 4288257951
21.131804 -4.0618086 0.55794352 4294572285
21.15453 -4.200933 0.55913216 4287136386
21.150879 -4.3352718 0.55969006 4290688692
23.34516 -4.9343567 0.61477929 4284239956
22.511497 -4.9026799 0.59483945 4291345081
22.441971 -5.0319691 0.59386915 4294373353
22.412622 -5.1700244 0.59391767 4288651418
22.441761 -5.3219781 0.59544593 4287335307
23.189425 -5.8007135 0.61582237 4282202172
20.424179 -5.9159074 0.55175781 4285166458
20.133486 -5.9658651 0.54532951 4284971138
20.066841 -6.0803046 0.54457754 4286286996
20.006235 -6.1962209 0.54399532 4286615185
19.964981 -6.317955 0.54392254 4293259761
19.912519 -6.4360356 0.54358298 4291286485
19.846073 -6.549325 0.54290372 4287862939
19.7733 -6.6601267 0.54207897 4286085753
19.694246 -6.768333 0.54110867 4283849307
19.606115 -6.8728452 0.53992003 4284178274
19.499561 -6.9701385 0.53827053 4284375398
19.4104 -7.0728865 0.5370819 4283717983
19.307592 -7.1699309 0.53555369 4289112749
19.181887 -7.2574921 0.53344321 4294572535
19.047441 -7.3405471 0.53111446 4293914605
18.930384 -7.4291644 0.52924669 4294177777
18.89744 -7.5503716 0.52958626 4287335305
19.115614 -7.7738762 0.53652394 4293717228
19.249533 -7.96632 0.54130274 4294638328
19.548576 -8.2309046 0.55047214 4294309114
20.106073 -8.6112185 0.56653076 4287733173
26.390926 -11.882083 0.73808116 4289776608
17.399876 -8.6182232 0.50695384 4293849073
17.360958 -8.7320108 0.50734198 4294307057
17.305271 -8.8374624 0.50729346 4292071376
18.686775 -9.6878786 0.54654241 4292006859
18.620787 -9.799098 0.54637259 4293716969
18.698759 -9.9871044 0.55018103 4293848303
19.201399 -10.407455 0.56575447 4291015354
19.109146 -10.509662 0.56497824 4288245878
20.005495 -11.162993 0.59168595 4292653483
19.928795 -11.281103 0.59146768 4294831071
25.097269 -15.031437 0.74564958 4287469465
16.890409 7.3659506 0.25469518 4293780164
16.996862 7.2885771 0.25549033 4292595890
17.092865 7.2059007 0.25615495 4291938473
17.225439 7.1376295 0.25729427 4291543715
17.336517 7.059329 0.25816062 4291017371
17.428711 6.9725051 0.25878963 4290424721
17.722443 6.964169 0.26199397 4290358926
17.679947 6.8225379 0.260914 4290885785
17.688751 6.701529 0.26049861 4291278999
17.653622 6.5646381 0.25953731 4291673507
17.740536 6.473331 0.2601307 4292069554
17.861826 6.393672 0.26116323 4285491545
17.955444 6.3031621 0.26185155 4281872932
18.059019 6.2153225 0.26267046 4293977805
18.188723 6.1353974 0.26382166 4291872167
18.309578 6.0512896 0.26486602 4292464306
18.452911 5.9733181 0.26619524 4292464304
18.553082 5.8802209 0.26699039 4292135591
18.66235 5.7890801 0.26790422 4292991151
18.813297 5.7095962 0.26934025 4292991410
18.933292 5.6193719 0.27039647 4292728240
19.06249 5.5306759 0.2715714 4293057203
19.199965 5.443059 0.27285317 4293187509
19.299494 5.3435564 0.27367204 4291739552
19.455477 5.2584295 0.27519113 4283778611
18.693567 4.9296374 0.26544756 4292269256
18.672136 4.8016448 0.26481855 4293846217
19.848682 4.9745355 0.27885836 4294305989
20.032314 4.8901162 0.28073347 4294963396
20.110584 4.7786655 0.28132689 4294966478
20.309046 4.6943593 0.28339189 4293782985
20.431128 4.5907001 0.28453124 4293913801
20.560511 4.4874234 0.2857655 4292268465
20.694284 4.3837671 0.2870591 4292464815
20.776623 4.2681751 0.28773558 4292331689
20.767117 4.133585 0.28730834 4292530095
20.736122 3.9953005 0.28663185 4284307001
20.716011 3.8597498 0.28609779 4285028676
20.78162 3.7401812 0.28660813 4291804585
20.88201 3.6261106 0.28754568 4292659890
20.993612 3.5129287 0.28862569 4294701793
21.190495 3.4123423 0.29073817 4287266932
4.1166592 0.63733846 0.085434332 4291940280
21.564098 3.2015264 0.29473767 4294965465
21.664515 3.080693 0.29571086 4281869842
21.540331 2.9283104 0.29400188 4288579956
21.540045 2.7937713 0.29378825 4294569931
22.223671 2.7438786 0.3017635 4294439634
22.262932 2.6101427 0.30203646 4279044360
3.7625749 0.41806576 0.080924511 4286941060
3.6894884 0.38705021 0.080022544 4294705150
3.555465 0.35096237 0.078396633 4285558634
2.9382339 0.27190897 0.071014762 4282203191
2.8661258 0.24751857 0.070136532 4283583799
23.496149 1.8811696 0.31575584 4292794033
2.6635218 0.19715253 0.067691736 4289243794
2.3324652 0.15831226 0.063739702 4285427813
2.3294005 0.14375184 0.063692234 4288124297
1.8589945 0.10335448 0.058090553 4291875016
1.7986716 0.088946395 0.05736661 4289045664
1.7841986 0.077262618 0.057188593 4286283132
1.7676518 0.065685995 0.056986835 4286021759
1.7730188 0.054992557 0.057046175 4289043603
1.7383361 0.043249786 0.056630798 4284761923
1.7035772 0.031934734 0.056215417 4280945938
1.6927426 0.021345001 0.056084871 4282000169
1.678843 0.010870704 0.055918716 4282000933
1.6698787 0.00056833052 0.055811904 4282328871
1.6638514 -0.0096417051 0.055740699 4282853673
1.661761 -0.019826401 0.055716962 4283575854
1.6656073 -0.030095585 0.055764437 4286009668
1.6663909 -0.040339425 0.055776305 4287390808
1.6930974 -0.05138867 0.05609674 4292131238
26.975336 -1.1560086 0.35645106 4291277710
27.043638 -1.325225 0.35735303 4289829239
27.007044 -1.4895945 0.35702074 4290354049
27.053288 -1.6587061 0.35768533 4288118631
27.097469 -1.8283739 0.35833809 4287000665
27.253275 -2.0069463 0.36033189 4286672729
26.539726 -2.1181948 0.3519887 4286870110
26.485384 -2.2774868 0.35150212 4282200873
26.402208 -2.4336214 0.35068324 4282727215
26.353937 -2.5923457 0.35029161 4286807409
21.965096 -2.4330692 0.2982862 4288847006
22.062973 -2.5810456 0.29963914 4290492858
21.969313 -2.7068343 0.29871345 4291942875
26.304657 -3.4050484 0.35080191 4290099892
21.482813 -3.1838889 0.29375264 4286547583
21.446072 -3.3130493 0.29355088 4289308836
20.816923 -3.6093473 0.28675056 4290950323
20.7747 -3.7334719 0.28651318 4292201931
20.752384 -3.8610559 0.28652504 4283650640
21.203547 -4.0797682 0.29226914 4280689438
21.173214 -4.2088194 0.2922098 4287131509
21.256697 -4.3611665 0.29353902 4285682269
22.244982 -4.7063689 0.30585796 4284567120
22.20689 -4.8408561 0.30575114 4286282360
20.614792 -4.89292 0.28746262 4281876028
20.815094 -5.2110987 0.29066697 4282205511
21.030659 -5.4024134 0.29370517 4293125592
21.363583 -5.6279011 0.29820311 4286084201
20.023943 -5.6711121 0.28300026 4284441193
20.025265 -5.8044486 0.28345126 4286021254
19.980644 -5.9246535 0.28334445 4284706420
19.873104 -6.0256696 0.2824662 4284903545
19.813789 -6.1406865 0.28219324 4285035901
19.721399 -6.2449389 0.28151679 4285101178
19.562836 -6.3270559 0.28002143 4284903284
19.43914 -6.419066 0.27896518 4285100150
19.314108 -6.5094776 0.27789706 4285296500
19.184917 -6.5972967 0.27678144 4284507237
19.103502 -6.7006564 0.27627113 4284573030
19.011187 -6.799562 0.27563027 4286415232
18.924017 -6.8996429 0.27506059 4287007630
18.841957 -7.0010009 0.27456215 4285230962
18.635927 -7.0548782 0.27249712 4287664531
18.502724 -7.1345563 0.27135777 4293980911
18.514444 -7.2698812 0.27206987 4294506744
18.688608 -7.4709473 0.27487069 4290032822
18.971214 -7.7192702 0.27908385 4293585901
19.424221 -8.0428753 0.28551626 4284179814
22.994518 -10.021003 0.33370018 4293128949
18.622894 -8.8050594 0.28048426 4281149484
18.756895 -9.0096512 0.28296465 4280230441
18.930418 -9.2363863 0.28599101 4292074461
17.337727 -8.591363 0.26564932 4289638571
17.28915 -8.699832 0.26570863 4294769654
17.27017 -8.8234949 0.26617151 4294966769
19.494246 -10.111168 0.29663655 4293387224
19.344246 -10.184473 0.29546162 4293388763
19.324604 -10.326067 0.29604316 4294573037
17.964352 -9.7413588 0.27853793 4291936181
19.17453 -10.550381 0.29574645 4293909458
17.234722 -9.7604227 0.27107298 4293054919
17.547359 -10.223894 0.27703068 4287934404
21.843 -13.088504 0.33822188 4288528105
16.6036 7.2512512 0.023542285 4290423951
16.701073 7.1721268 0.023501795 4290160779
16.813856 7.0986915 0.023449434 4290752916
16.915285 7.0195413 0.023405451 4291739811
17.036743 6.9477205 0.023346111 4292002726
17.124537 6.8612819 0.023311902 4291805604
17.224005 6.7787881 0.023268618 4291346336
17.307249 6.6892018 0.023237202 4291676071
17.430241 6.6141062 0.023175767 4290754715
17.603561 6.556603 0.023076631 4289832846
17.723293 6.4776497 0.023017291 4294702046
17.820126 6.3893714 0.022974703 4294044629
17.940125 6.3084421 0.022914667 4294966244
18.070194 6.229866 0.022846946 4293714373
18.207552 6.1524916 0.022773642 4293911231
18.330399 6.0689492 0.022710811 4293911483
18.416754 5.9724059 0.022674508 4285621314
18.548363 5.8895593 0.022604695 4286279513
18.66341 5.8002753 0.02254675 4291214497
18.35231 5.5803175 0.022799473 4292858282
18.445633 5.4852805 0.022756189 4293384367
18.588409 5.4038267 0.022676602 4293976765
18.703941 5.3131738 0.022616563 4293778098
18.766064 5.2065983 0.022594921 4293384880
18.806343 5.0937071 0.022588637 4282598963
18.770535 4.9605842 0.022636808 4289961613
18.722181 4.8250976 0.022693358 4293644469
18.880426 4.7425389 0.022600506 4294171834
19.398724 4.7464137 0.022248648 4293645744
19.496548 4.6437511 0.022199079 4293579697
19.611378 4.5441298 0.022136945 4293383347
19.750103 4.4487686 0.02205736 4289305464
19.901091 4.3546548 0.021968696 4293648059
20.035034 4.2553215 0.021891903 4293253044
20.164585 4.1537008 0.0218179 4292594601
20.316196 4.0551524 0.021727841 4294043071
20.443787 3.950345 0.021654539 4291344792
20.608208 3.8511062 0.021554705 4294437324
20.691477 3.7354243 0.021512119 4294963935
20.614508 3.5910547 0.02158263 4292593583
4.1569376 0.69693637 0.03324841 4289503116
21.267105 3.4364259 0.021151185 4294240189
21.3787 3.3199918 0.021086957 4284833096
21.511421 3.2055602 0.02100737 4293911507
21.563353 3.0781736 0.020984331 4280554243
21.46492 2.929841 0.02106671 4294962395
21.493402 2.7995007 0.021059033 4282727980
21.506205 2.6670744 0.021061823 4283517755
21.594662 2.5436082 0.021010861 4285427302
3.8034632 0.4233869 0.033519287 4284702573
3.7612374 0.39532363 0.033550702 4289965996
2.9174683 0.27022052 0.034145508 4283515211
2.8901803 0.24980526 0.034165755 4293647826
22.744177 1.8333946 0.020261066 4293584084
22.765968 1.6946216 0.020253388 4282793521
2.3505564 0.15941578 0.034546237 4285624412
2.3624692 0.14567246 0.034538556 4286676073
1.8261602 0.10109212 0.034914151 4293848288
1.7977823 0.088441283 0.034934398 4288980124
1.8102795 0.077932529 0.03492602 4287730057
1.7917371 0.066110387 0.034939285 4287596672
1.733138 0.053262983 0.034980476 4281476632
1.7074405 0.04197086 0.034998626 4283317294
1.679671 0.03095787 0.035018172 4280817164
1.6698303 0.020521102 0.035025157 4281870628
1.6649249 0.010240552 0.035028648 4281935653
1.6589563 2.0253006e-05 0.035032835 4282198055
1.6549253 -0.010137249 0.035035629 4282657323
1.6508322 -0.020245284 0.035038419 4283904819
1.6556762 -0.030462651 0.035034928 4286073405
1.6854495 -0.041335762 0.035013985 4287981399
1.6191939 -0.049699664 0.035060063 4291670679
20.636457 -0.74638373 0.021774616 4286609766
20.59952 -0.87164158 0.021796957 4291083180
20.529858 -0.99492711 0.021841638 4288846477
20.461458 -1.1174997 0.021884922 4286083686
20.421276 -1.241028 0.021907959 4287859836
20.411283 -1.3661736 0.021909356 4286938993
20.407499 -1.4917535 0.021905866 4294965224
20.335163 -1.6119686 0.021949846 4294965741
21.241346 -2.209492 0.021281734 4292862428
21.336727 -2.3518307 0.021204941 4294901500
21.66061 -2.5221269 0.020966878 4294245631
22.138031 -2.7154696 0.020619906 4287935960
23.079033 -2.974694 0.019945512 4289579238
23.050438 -3.1149099 0.019952493 4278190089
23.011087 -3.2534869 0.019966455 4279505940
22.980799 -3.3931589 0.019973436 4278190080
22.938791 -3.5309088 0.019988097 4278584064
22.899908 -3.6689038 0.019999966 4280096786
21.888565 -3.6448145 0.020699494 4286019688
21.845097 -3.7754762 0.020714154 4279835406
21.695847 -4.0244842 0.020786062 4279769621
21.467449 -4.1185412 0.020930575 4282136372
21.353491 -4.2326908 0.020993408 4284237385
21.35161 -4.3686438 0.020975955 4285748316
21.304834 -4.4954443 0.020989917 4283580743
21.240694 -4.6182246 0.021015748 4281213996
22.399782 -5.5949283 0.020072572 4280623407
22.361155 -5.7312722 0.020075364 4279571243
22.333305 -5.8704033 0.020069778 4292466419
22.241829 -5.9925017 0.020109572 4288913846
19.630846 -5.418592 0.021973584 4292336353
19.64727 -5.5530834 0.021937281 4292864231
19.686794 -5.6949244 0.021883525 4292338144
19.676413 -5.8229899 0.021865373 4292469730
19.602028 -5.9320283 0.021893298 4289311156
19.515581 -6.0368285 0.021929601 4288916657
19.424776 -6.1395864 0.021968696 4291680727
19.237328 -6.2104344 0.022078304 4290234049
19.109583 -6.2989335 0.022143928 4291286221
18.994747 -6.390564 0.02219978 4291482827
18.884241 -6.4826455 0.022252139 4292272090
18.541826 -6.7491207 0.0224155 4289509045
18.439121 -6.8401608 0.02246088 4294245112
18.383707 -6.9482231 0.022470653 4294573048
18.309933 -7.0490379 0.022493692 4290492858
18.425541 -7.2236586 0.022374311 4291874260
18.520187 -7.3921771 0.022269592 4287205530
21.211632 -8.7695293 0.02016682 4293392895
21.145439 -8.8944769 0.020175895 4293720061
21.066563 -9.0138283 0.020194046 4294833397
21.017275 -9.1457138 0.020189159 4294963433
17.831341 -7.8900189 0.022578165 4294966256
17.722403 -7.972209 0.022624243 4294705137
17.716805 -8.1007586 0.022590732 4294310897
17.764711 -8.2548199 0.022515334 4294704887
17.852085 -8.4289837 0.022408519 4294047222
17.810848 -8.5435514 0.022400143 4281414974
17.771576 -8.6592464 0.022389669 4283520352
17.470734 -8.6457272 0.022582356 4280427301
17.319065 -8.7033777 0.022659149 4290953914
17.349962 -8.8526525 0.022592828 4287992461
17.741964 -9.1902723 0.022241667 4287531405
17.378984 -9.1379547 0.02248322 4294305505
17.142607 -9.1483831 0.02262564 4286993483
17.055374 -9.2367306 0.022650074 4292983213
16.720554 -9.1885538 0.022871383 4294964451
16.660362 -9.2890291 0.022874173 4294440690
16.611759 -9.3960018 0.022867192 4288256920
16.678699 -9.5694084 0.022766661 4291548631
19.375381 -11.4347 0.02048447 4293590015
19.331457 -11.569288 0.020462828 4294114558
16.562063 7.2227664 -0.19699131 4291082649
16.494873 7.0733266 -0.19542859 4290951316
16.578505 6.9890728 -0.19599685 4292398763
16.668188 6.9067373 -0.19665553 4292661683
16.773228 6.8299747 -0.19753376 4292858035
16.884449 6.7547812 -0.19850238 4292923315
16.962803 6.6656804 -0.19901899 4292068006
17.030436 6.5719123 -0.19939353 4292001443
17.062027 6.4641042 -0.19927728 4291410846
17.076063 6.3498826 -0.19892858 4291674790
17.14852 6.2573242 -0.19939353 4291608997
17.260963 6.1786056 -0.20041381 4291081371
17.350441 6.0907931 -0.20112415 4291081881
17.478254 6.0154548 -0.20236398 4290293648
17.610531 5.9403749 -0.20366842 4290951065
17.743488 5.8642101 -0.20498575 4291674021
17.858097 5.780786 -0.2060577 4287266406
17.962812 5.6931543 -0.20700051 4283254064
18.116785 5.6198578 -0.20861489 4291938740
18.21121 5.5268826 -0.20942853 4292727991
18.33201 5.4409246 -0.2106038 4287662445
18.463003 5.3567572 -0.21192114 4288189563
18.571522 5.2649126 -0.21294144 4294767574
18.680571 5.1722045 -0.21397465 4290623650
18.811378 5.0843558 -0.21530491 4289963667
18.85866 4.9731698 -0.21552446 4288053616
18.769705 4.8267336 -0.21393591 4291540635
18.797028 4.7109876 -0.21391007 4292199843
19.391903 4.7337976 -0.22143957 4291739805
19.504248 4.6346002 -0.22255024 4292266147
19.629742 4.537354 -0.22384176 4292463015
19.667944 4.4192343 -0.22398382 4292330660
19.67222 4.2935672 -0.22368678 4293054131
19.697216 4.1725726 -0.22367388 4292593323
19.677395 4.0423794 -0.22307977 4292395940
19.728306 3.9268348 -0.22342849 4293317557
19.816832 3.8181949 -0.22428086 4290948504
19.957846 3.7185051 -0.22583067 4291478191
20.046221 3.6078415 -0.22669598 4290229411
4.2805233 0.74361432 -0.019731876 4293776827
4.2830334 0.71700549 -0.019706048 4294830786
20.525833 3.3053226 -0.23214614 4289833099
20.713717 3.2053082 -0.23434171 4280822041
20.856628 3.0965042 -0.2359561 4287663997
20.981161 2.9835327 -0.23733801 4281807139
21.022852 2.8579707 -0.23764798 4287002982
19.936327 2.5857964 -0.22327349 4292988857
19.826778 2.4479847 -0.22164619 4283714374
19.853342 2.3276806 -0.22180119 4292335062
3.8589261 0.42876151 -0.013765112 4282664517
3.8505449 0.40392908 -0.013623044 4287993488
3.8569317 0.38068745 -0.013674706 4291807403
2.8601117 0.24699998 -0.00069505349 4289572261
19.480253 1.4394739 -0.2159119 4284111188
2.3234565 0.1577023 0.0063049197 4283254836
2.3014259 0.14203012 0.0066019669 4286018661
1.898906 0.10556514 0.011819659 4286808183
1.8136292 0.089682847 0.012930354 4286349174
1.7891705 0.077476844 0.013253231 4288388504
1.7786206 0.066091195 0.013395298 4281084711
1.7939843 0.055638261 0.013201572 4280820512
1.7553071 0.043668255 0.013705259 4285555812
1.6845602 0.031582557 0.01462223 4280225551
1.6717242 0.021084763 0.014790125 4281738274
1.6518242 0.010701968 0.015048428 4281739044
1.6538585 0.00056658301 0.015022596 4282132519
1.6538309 -0.0095813135 0.015022596 4282525737
1.6557407 -0.019753173 0.014996767 4284036918
1.6605871 -0.030003715 0.014932191 4286008128
1.6623709 -0.040241182 0.014906362 4286928203
1.609122 -0.048820686 0.015590861 4290880921
19.491486 -0.8351863 -0.21560195 4290819491
19.596579 -1.0807585 -0.21711302 4294701551
20.023729 -1.2276055 -0.22273105 4293385951
20.279198 -1.3682207 -0.22614065 4282925636
20.414019 -1.5032023 -0.22800043 4278649350
20.63765 -1.6470509 -0.23102254 4280952875
20.830389 -1.7911292 -0.23365721 4285689973
20.98728 -1.9344213 -0.23583987 4282663753
21.220808 -2.0873418 -0.23902988 4281611324
21.388597 -2.2364397 -0.24138045 4285625726
21.63287 -2.3962629 -0.24473837 4283785064
21.80447 -2.5508001 -0.2471664 4289841108
22.170486 -2.7316244 -0.2521387 4287209399
22.126534 -2.8641422 -0.25178999 4279379519
22.044138 -2.9911141 -0.25095052 4278194463
21.966963 -3.1180263 -0.25018853 4282536043
21.895981 -3.2451308 -0.24951693 4282008671
21.77585 -3.3640003 -0.24821252 4282073433
21.697538 -3.4883447 -0.24746343 4281348932
21.610636 -3.6105361 -0.24661106 4281348144
21.533888 -3.7336721 -0.24590072 4281477422
21.490891 -3.8621938 -0.24564242 4281213739
21.4776 -3.9959989 -0.24578449 4280622883
21.584253 -4.1530266 -0.24751511 4280228372
21.44754 -4.2633553 -0.24605569 4280951327
21.401388 -4.3908548 -0.2457974 4281739054
20.958282 -4.4341192 -0.24030849 4280424999
20.875969 -4.5507064 -0.23958525 4279441438
20.784239 -4.6644797 -0.23874575 4279245090
20.710411 -4.7815733 -0.23815167 4279245096
20.596041 -4.8884687 -0.23702806 4278652458
20.512228 -5.0017228 -0.23631772 4283125872
20.428772 -5.1143751 -0.23562032 4280166214
20.367952 -5.232163 -0.23523286 4279115076
20.25231 -5.3351326 -0.23412216 4284048763
20.199886 -5.4540844 -0.23386386 4285232493
20.16893 -5.5787258 -0.2339026 4286283122
20.126623 -5.7001948 -0.23379928 4285427300
20.13929 -5.837502 -0.23444504 4284243285
19.81933 -5.8768177 -0.23062217 4280230427
19.611614 -5.9463782 -0.22831038 4279439888
19.577623 -6.0674891 -0.22834912 4278978317
19.484568 -6.3017406 -0.22811666 4290691777
19.385717 -6.4014239 -0.227303 4291743440
19.297749 -6.5039635 -0.22664434 4291874765
19.234783 -6.6144457 -0.22633436 4292334548
19.066456 -6.6876616 -0.22459084 4290689471
18.874424 -6.7506442 -0.22252443 4289967027
19.793394 -7.4930782 -0.23697639 4282006326
19.730251 -7.6079116 -0.23674393 4281084974
19.213181 -7.5442634 -0.23022181 4284242527
19.246378 -7.693933 -0.23133251 4287009171
19.204363 -7.8141427 -0.23141 4290695889
19.156979 -7.9322138 -0.2314229 4290627265
19.043444 -8.0224352 -0.23051885 4288911767
18.869783 -8.0859613 -0.22877532 4285419602
18.760233 -8.1756248 -0.22793585 4283837745
17.823399 -8.0290165 -0.21610564 4280295707
18.038694 -8.5288315 -0.22133625 4282206272
17.984221 -8.6384888 -0.22131041 4287074696
17.903019 -8.7350826 -0.22091004 4281086001
17.274786 -8.560173 -0.21263148 4280164899
17.219257 -8.6646605 -0.21259274 4284903276
17.602966 -8.9935322 -0.21893403 4284772714
17.590059 -9.1234713 -0.21955395 4284443749
17.510742 -9.2191181 -0.21921816 4279045128
17.43268 -9.3150778 -0.21890819 4280489751
17.371679 -9.419961 -0.21885654 4281411365
18.102871 -10.399316 -0.23326978 4288462823
18.038721 -10.510198 -0.23326978 4290565873
17.973032 -10.620175 -0.23325685 4283459197
17.926401 -10.741563 -0.23354098 4282603378
16.290287 7.1076307 -0.41021076 4281806365
16.30603 6.9957151 -0.40945688 4294636251
16.338518 6.8912578 -0.40918043 4291873450
16.386034 6.7931738 -0.4093312 4292399792
16.48851 6.7174001 -0.41098979 4293319613
16.573963 6.6339364 -0.41219604 4293318843
16.69809 6.5650415 -0.41445777 4292924085
16.760437 6.4711037 -0.41506088 4291477409
16.74935 6.3490043 -0.41370386 4291083164
16.802046 6.2513418 -0.4140808 4292992188
16.84572 6.1501865 -0.4142316 4294505681
17.071365 6.1141338 -0.41925761 4294834644
17.315113 6.0818367 -0.42476109 4294966483
17.2453 5.9386907 -0.4219214 4293519047
17.65365 5.9584265 -0.43179753 4291215780
17.743979 5.8678875 -0.43322992 4290095240
17.880457 5.7915621 -0.43589371 4289831296
17.955679 5.6944351 -0.43694919 4290488972
18.037064 5.5986786 -0.43818057 4290817939
18.046207 5.4803452 -0.43752718 4291935901
18.050743 5.3609724 -0.43677327 4291607188
18.057379 5.2425866 -0.43609476 4292858282
18.087282 5.131144 -0.43604451 4281147655
18.112646 5.0184646 -0.43589371 4285161808
18.227053 4.9299459 -0.43808004 4293450194
18.316887 4.8338332 -0.43963811 4284171324
18.414938 4.7390456 -0.44142234 4291671451
18.569723 4.6575885 -0.44468927 4292659363
18.713514 4.5717988 -0.44767973 4292264607
18.876396 4.4890456 -0.45117283 4291606677
18.973711 4.3893647 -0.45298219 4291475604
19.102694 4.295898 -0.45562086 4290685577
19.208776 4.196105 -0.45768151 4292198561
19.35347 4.1034665 -0.46074739 4290553486
18.364828 3.7761853 -0.43473774 4292922548
18.333731 3.6526833 -0.4333556 4294042569
18.300827 3.529516 -0.4319483 4289307020
18.270056 3.4074402 -0.43061641 4291346085
4.3752775 0.78735507 -0.075176328 4289242775
18.173594 3.1591749 -0.42712334 4289040247
18.151226 3.0406651 -0.42606786 4288776308
18.098484 2.9177732 -0.4242585 4290289547
18.038002 2.7945721 -0.42227322 4288908664
17.957905 2.6694293 -0.41981047 4287066457
17.887846 2.5469263 -0.41762415 4287264350
17.845686 2.4292963 -0.4161666 4285225546
17.797798 2.3116353 -0.41458341 4291148193
17.782875 2.1988273 -0.41385463 4292267200
3.8771975 0.45435369 -0.061555814 4280819504
3.7278991 0.41364008 -0.057710912 4280953135
3.7582047 0.39368314 -0.058414552 4281677610
3.8520741 0.37966448 -0.06072652 4291544493
17.418903 1.6131003 -0.40317434 4293515963
2.7768161 0.23898967 -0.033485498 4283449658
2.3149667 0.15617795 -0.021749746 4283384629
2.3158815 0.14197065 -0.021749746 4285425243
1.9454011 0.10709415 -0.01240135 4294703343
1.8242091 0.089125827 -0.0093354769 4285427819
1.8157331 0.077541351 -0.0091093071 4287797137
1.7941967 0.065581121 -0.0085564442 4283914059
1.7595934 0.053484641 -0.007676892 4284767313
1.7169152 0.041616097 -0.006596297 4285884001
1.681156 0.030404741 -0.005691614 4280027145
1.6673166 0.019911852 -0.0053397939 4281672998
1.6664076 0.0096745109 -0.0053146631 4282000933
1.6604375 -0.00055278064 -0.0051638819 4282132262
1.6564041 -0.01071797 -0.0050633624 4282328358
1.6583065 -0.020905068 -0.0051136203 4283775288
1.660146 -0.03111591 -0.0051638819 4286141258
1.6509293 -0.041084323 -0.0049377121 4286930257
19.358938 -0.7070117 -0.4503938 4285694080
19.530018 -0.83327216 -0.4548167 4286944148
19.706264 -0.96195048 -0.45939037 4287864223
19.867683 -1.0920554 -0.46361223 4287467922
20.046206 -1.2252738 -0.46828642 4292270295
20.257746 -1.3630036 -0.47381505 4294836222
20.400545 -1.4983991 -0.47763482 4294704382
20.595257 -1.6398004 -0.48278651 4294835967
20.797958 -1.7844154 -0.48816434 4294835450
21.055401 -1.9367036 -0.49494943 4294835448
21.298811 -2.0909483 -0.50140786 4294573046
21.381031 -2.2315528 -0.50382036 4286086778
21.585537 -2.3868628 -0.50934899 4288587682
21.878296 -2.5551975 -0.51713932 4280164383
22.03981 -2.7112305 -0.52163756 4280230439
22.045565 -2.8493595 -0.52221555 4280165428
22.027666 -2.9845753 -0.52221555 4280034361
21.990131 -3.1170135 -0.52173811 4279441965
21.905323 -3.2422264 -0.52007949 4280231481
21.839569 -3.3695645 -0.51892352 4280428860
21.637819 -3.6108322 -0.51487756 4282863188
21.568962 -3.7355158 -0.51369649 4283323225
21.434446 -3.8478363 -0.51085675 4282993231
21.353424 -3.9686913 -0.50939924 4280953137
21.292349 -4.092659 -0.5084694 4282203204
21.216827 -4.2133012 -0.50718778 4283519839
21.109291 -4.3267498 -0.50510198 4280428347
21.002142 -4.4392443 -0.50304133 4280823627
20.87097 -4.5454836 -0.50037754 4279969088
20.746113 -4.6518116 -0.49788967 4279969599
20.6675 -4.7675624 -0.49660805 4280429897
20.600893 -4.8855219 -0.49565312 4280298831
20.521965 -5.0000052 -0.4943966 4280167246
20.433681 -5.1115217 -0.49291393 4279970637
20.347706 -5.2228885 -0.49150661 4280166992
20.265972 -5.3346658 -0.49022499 4280100169
20.169153 -5.4417319 -0.48856643 4279836210
20.054443 -5.5430183 -0.48645547 4280560703
19.973885 -5.6529012 -0.48524925 4280692032
19.886971 -5.7603359 -0.48389223 4279639595
19.811953 -5.8706088 -0.48286185 4279179554
19.722937 -5.9761214 -0.48147973 4279310620
19.644835 -6.0843115 -0.4803991 4279572509
19.581396 -6.1965928 -0.47972062 4279901729
19.53635 -6.3144736 -0.47954473 4279573021
19.223824 -6.3440175 -0.47230724 4279310103
19.199694 -6.466958 -0.47270933 4278521616
19.267433 -6.6216769 -0.47557417 4279047709
19.133041 -6.7070408 -0.47308627 4280099633
19.077406 -6.8192658 -0.47270933 4280428859
19.00045 -6.9235325 -0.4717795 4279574833
18.920124 -7.0260687 -0.47077432 4286418333
18.842997 -7.1292944 -0.46986964 4279049265
18.763451 -7.2311201 -0.46891466 4279115569
18.663822 -7.3245702 -0.46743199 4282800230
18.587891 -7.4267135 -0.46660271 4281482575
18.510489 -7.5278244 -0.46574828 4279902264
18.455633 -7.6378207 -0.46552208 4281153622
18.366961 -7.7334647 -0.46439126 4279705414
18.299866 -7.8377519 -0.46386352 4279902015
18.218433 -7.9355211 -0.46295884 4279641151
18.157518 -8.0418959 -0.46263215 4279376949
18.051313 -8.1277132 -0.46107408 4279770927
17.975651 -8.226675 -0.46037045 4280099365
17.902172 -8.3262768 -0.45974219 4281678390
17.874245 -8.4470711 -0.46039557 4280032536
17.793242 -8.5427418 -0.45959142 4279965982
17.197935 -8.5182161 -0.44587037 4283059273
17.65263 -8.8786917 -0.46014428 4285165929
17.736713 -9.0577574 -0.46406457 4285560688
17.667488 -9.1595163 -0.46368763 4280691505
17.515408 -9.2174759 -0.46097356 4279836209
17.252176 -9.2145796 -0.45509312 4279113259
17.133785 -9.2869205 -0.453334 4292076528
17.058084 -9.3817606 -0.45280629 4291684074
16.98885 -9.4799194 -0.4524796 4290500319
16.921663 -9.5790577 -0.45222828 4291749365
16.829624 -9.6637926 -0.45127335 4291946742
16.758778 -9.7603359 -0.45094666 4282205270
16.706324 -9.8675575 -0.45117283 4284638046
16.658327 -9.9775839 -0.45154977 4280427034
16.283409 7.1012511 -0.63014489 4286083686
16.322083 6.9992356 -0.62995732 4285623131
16.327888 6.8834257 -0.62845671 4290294685
16.246111 6.731854 -0.6234296 4291610797
16.261196 6.621491 -0.62237918 4292464819
16.344198 6.5386629 -0.62410486 4292595890
16.442606 6.461278 -0.62646836 4292135339
16.534151 6.3804116 -0.62856925 4291674790
16.581398 6.2820258 -0.62890691 4292266925
16.585915 6.1676283 -0.62755632 4292332969
16.609364 6.060605 -0.6269936 4293977541
16.712097 5.9821506 -0.62961972 4290556307
15.707534 5.5140967 -0.5882023 4290030995
15.727844 5.4130611 -0.58767706 4293387224
17.084505 5.7629485 -0.64012414 4287991673
17.176476 5.6768255 -0.64237505 4290489744
17.280386 5.5937905 -0.64511371 4290686100
17.394402 5.5130138 -0.64826506 4290028174
17.485168 5.4239426 -0.65051597 4289766542
17.598442 5.3409295 -0.65366733 4289569412
17.720936 5.259572 -0.65719378 4290820244
17.855566 5.1805315 -0.66120797 4292268459
16.875607 4.7841682 -0.62174141 4293978836
16.895014 4.677865 -0.6213662 4292794560
16.877092 4.5615964 -0.61956549 4292334009
16.85742 4.4454703 -0.61772722 4292860091
16.818567 4.3250294 -0.61517614 4291936933
16.772089 4.2035322 -0.61236244 4292529066
16.739317 4.0863237 -0.61011147 4291212178
16.673658 3.9620531 -0.60662252 4290356620
16.619766 3.8416681 -0.60362124 4287265125
16.561125 3.7212183 -0.60046995 4286345817
16.533854 3.6086648 -0.59855664 4287132763
16.524401 3.5005209 -0.59735614 4287397992
16.486837 3.3869989 -0.59510517 4287399285
16.464188 3.2771912 -0.59345448 4285820253
16.446697 3.1689236 -0.59202892 4293978585
4.5533295 0.84867018 -0.13711262 4292070324
16.253223 2.9252667 -0.58321267 4293643701
16.171427 2.8082178 -0.57942361 4294433982
16.143015 2.7013535 -0.57769787 4293907888
16.120811 2.5960555 -0.57623476 4293907120
16.094959 2.4906738 -0.57465911 4293972656
16.053598 2.3835061 -0.57252067 4294235056
16.00658 2.2762368 -0.57019472 4294038195
15.982618 2.1728652 -0.5687691 4293906871
15.954028 2.0693588 -0.56719345 4293841854
15.906918 1.9640819 -0.56494248 4293579715
15.864083 1.860043 -0.56287915 4292196781
3.7145138 0.41273057 -0.10353602 4283056703
3.8223252 0.40097162 -0.10751269 4293451211
2.6900895 0.23233989 -0.064594641 4286082661
2.6227331 0.2103277 -0.062006056 4287926666
2.5482337 0.18863574 -0.059154853 4293783009
2.3629017 0.16037306 -0.052139409 4284176467
2.3349166 0.14409132 -0.051051453 4284044879
2.1002836 0.11671925 -0.042197727 4293190106
1.8334732 0.090659887 -0.032143503 4286808701
1.8329966 0.079365186 -0.032105982 4284045908
1.7984974 0.066825479 -0.030792929 4287269504
1.8058654 0.056004182 -0.03105554 4288387207
1.7642174 0.043887962 -0.029479884 4289307793
1.6835245 0.031563379 -0.026441105 4288253060
1.6716958 0.021084409 -0.025990911 4282000684
1.6717937 0.01082668 -0.025990911 4282132519
1.6658329 0.00056788919 -0.025765821 4282328871
1.6598094 -0.0096173445 -0.025540724 4282656553
1.6567215 -0.0197651 -0.025428176 4283510576
1.6625638 -0.030039888 -0.025653273 4285480763
1.6613491 -0.040216208 -0.025615755 4287191375
19.618965 -0.7200799 -0.70026189 4294179321
19.554276 -0.83787817 -0.69801098 4294638839
19.787312 -0.96953797 -0.70697725 4293783013
19.932653 -1.0992996 -0.71267962 4294966770
20.086117 -1.2314315 -0.71871966 4294965738
20.176889 -1.3613161 -0.72243375 4292464831
20.617878 -1.6454725 -0.73972851 4291214249
20.922012 -1.7990091 -0.75158346 4286674020
21.056856 -1.9408354 -0.75709832 4282003754
21.160906 -2.0814486 -0.76148766 4279438605
21.458818 -2.2437835 -0.77323008 4279833624
21.650244 -2.3981874 -0.78099585 4278650380
21.835611 -2.5544436 -0.78857404 4281019187
21.936556 -2.7027979 -0.79300088 4280558638
21.964123 -2.9802558 -0.79536438 4280690226
21.840364 -3.3739679 -0.79288834 4278849050
21.807411 -3.5060108 -0.79243815 4279440674
21.75592 -3.6348119 -0.79131269 4281676345
21.731314 -3.9054058 -0.79213804 4280361249
21.741325 -4.0450711 -0.79345107 4279966750
21.613062 -4.1585698 -0.78951192 4280624421
21.531273 -4.2800007 -0.78737354 4280821802
21.058693 -4.4553647 -0.77131677 4279835431
20.830805 -4.5408597 -0.76362604 4279967018
20.7889 -4.6655259 -0.7631008 4279901738
20.734568 -4.7871509 -0.76212543 4279573289
20.653273 -4.9020538 -0.76013708 4279573548
20.550961 -5.011168 -0.75736088 4279704877
20.444214 -5.1182418 -0.75443465 4279440933
20.408556 -5.2425942 -0.75428462 4279703846
20.277437 -5.3417525 -0.750458 4279967018
20.197971 -5.453568 -0.74865723 4279769638
20.15546 -5.5749998 -0.74831963 4279769374
20.059338 -5.6811376 -0.74591857 4280229412
19.857817 -5.8882303 -0.74081647 4280098339
19.762024 -5.9919868 -0.73849046 4280033313
19.268368 -6.3626709 -0.72502232 4279900698
19.225178 -6.4795032 -0.72487223 4280558367
19.185057 -6.5973444 -0.72487223 4280162841
19.135727 -6.7119603 -0.72453463 4280163872
19.049961 -6.8134313 -0.72277135 4280097568
18.999348 -6.9271107 -0.72243375 4279374867
18.928385 -7.0331154 -0.72130823 4280099108
18.856836 -7.1385112 -0.72018278 4279440673
18.787506 -7.2443728 -0.71916986 4279965991
18.702705 -7.3438082 -0.71755666 4278651157
18.633167 -7.4487824 -0.71658128 4278652440
18.554714 -7.5497913 -0.71526819 4279179042
18.482191 -7.6527939 -0.71421778 4279769900
18.38792 -7.7462678 -0.71230447 4279835431
18.314325 -7.8479271 -0.711254 4279638817
18.232847 -7.9457808 -0.70990348 4279834915
18.13624 -8.0364542 -0.70795262 4279703845
18.097521 -8.1525106 -0.70840281 4279835685
18.050793 -8.2650652 -0.7085529 4278915094
17.760489 -8.5310173 -0.7029255 4280032545
17.872158 -8.7200251 -0.70979089 4280493094
17.628536 -9.0065947 -0.70641446 4279638553
17.563183 -9.1095314 -0.70600182 4279901474
17.383165 -9.151948 -0.70074958 4279770149
17.291428 -9.2395983 -0.69924897 4279901738
17.207178 -9.3307552 -0.69808596 4279506980
17.09182 -9.4043655 -0.69560993 4279441187
17.017216 -9.4998074 -0.69489712 4279245086
16.939476 -9.5932093 -0.69407177 4279441451
16.869896 -9.6909943 -0.69362164 4279900455
16.790257 -9.782753 -0.69275874 4280689183
16.725613 -9.883049 -0.69257116 4282070049
16.660372 -9.9829216 -0.69238359 4282134811
15.959518 6.969913 -0.83609927 4284176714
15.990972 6.8671265 -0.83549845 4283124026
16.019005 6.7630501 -0.83474737 4282334513
16.039907 6.656209 -0.83364582 4283715912
16.057327 6.5482349 -0.83239412 4290886052
16.09535 6.448843 -0.83229393 4291871397
16.162497 6.3609371 -0.83379608 4291476128
16.260843 6.2846928 -0.83700055 4291672478
16.337383 6.1993299 -0.83905339 4291738271
16.470575 6.134532 -0.84416056 4291805604
15.59051 5.6979923 -0.79519206 4293057480
15.614837 5.598515 -0.79464132 4294899693
15.613093 5.4900069 -0.79273868 4293453029
15.526573 5.3527546 -0.78637975 4293186236
15.528848 5.2471514 -0.78477752 4290156410
15.51619 5.137013 -0.78242421 4290815621
15.480916 5.0201397 -0.77891934 4293054648
15.445747 4.9041972 -0.77546448 4290291864
15.423094 4.793026 -0.77271062 4288647543
15.34997 4.6672063 -0.76735318 4288121713
15.303649 4.5507231 -0.7634477 4287397990
15.277579 4.4411197 -0.76064378 4286937441
15.26323 4.3355565 -0.75849074 4288581239
15.233727 4.2263317 -0.75558668 4294570720
15.196713 4.1158037 -0.75233215 4294700512
15.164712 4.007422 -0.74937803 4293777353
15.140659 3.9018323 -0.74687451 4292660153
15.123632 3.798636 -0.7447716 4292397744
15.056436 3.6836867 -0.74011511 4292988338
14.146064 3.3690238 -0.69204789 4293975227
14.993482 3.4738386 -0.7346074 4293052583
14.911236 3.358505 -0.72929996 4293906863
14.893513 3.2586198 -0.72734725 4293972656
14.876102 3.1592865 -0.72544456 4294828741
14.885427 3.0659337 -0.72494388 4291144594
14.806996 2.9551809 -0.71998692 4294039737
14.801314 2.8597224 -0.71878523 4294104499
14.756735 2.757288 -0.71563083 4293841581
14.721284 2.6572833 -0.71297711 4293907120
14.73928 2.5672481 -0.71307725 4293381030
14.84537 2.4919796 -0.71768373 4294500027
14.917566 2.4100866 -0.72058779 4294632388
15.129754 2.2542336 -0.72990078 4291673260
15.275788 2.1802766 -0.73661017 4292331447
15.324504 2.0913694 -0.73841268 4291740856
15.400431 2.0055602 -0.7416172 4294966000
15.470925 1.9182822 -0.74457133 4294966513
3.6462731 0.42850733 -0.14708593 4291736218
16.000509 1.7849038 -0.7701571 4286150255
16.125383 1.6987342 -0.77591515 4279373073
16.229919 1.6091266 -0.78067178 4281479221
16.348877 1.5196875 -0.78617948 4285624691
16.454409 1.4277253 -0.79103625 4284769893
2.5037844 0.20078033 -0.088954657 4286806886
2.4760857 0.18326214 -0.087502629 4288517776
2.3894782 0.16207497 -0.083096467 4284569689
2.3196535 0.14301108 -0.079541497 4284503886
2.2357268 0.12402853 -0.075285546 4290030238
1.8324553 0.090169691 -0.05500719 4284176204
1.8060337 0.07774698 -0.053655304 4285295714
1.8204492 0.067188621 -0.054356284 4287138692
1.8188306 0.055954579 -0.054256141 4287599239
1.7612312 0.043330092 -0.051352084 4289900446
1.6835759 0.031032568 -0.047446623 4288582795
1.6617639 0.020416303 -0.046345085 4282067756
1.6638556 0.010233221 -0.046445221 4282001446
1.6638869 2.380251e-05 -0.046445221 4282263848
1.6578635 -0.010153161 -0.046144798 4282262565
1.6577698 -0.02032543 -0.046144798 4283116334
1.6606096 -0.030549923 -0.04629501 4285414970
1.6683787 -0.040928993 -0.046695575 4287782231
1.7140177 -0.052541412 -0.048998795 4288904301
19.553616 -0.70728087 -0.94395006 4290553239
