# .PCD v0.7 - Point Cloud Data file format
VERSION 0.7
FIELDS x y z rgb
SIZE 4 4 4 4
TYPE F F F U
COUNT 1 1 1 1
WIDTH 1107
HEIGHT 1
VIEWPOINT 0 0 0 1 0 0 0
POINTS 1107
DATA ascii
4.0016551 -1.133498 -0.68247676 4287793538
4.041945 -1.171734 -0.69102162 4282988071
4.0403471 -1.1981919 -0.692047 4286475873
4.0564933 -1.2301022 -0.69631946 4279372295
4.0178099 -1.2453516 -0.69067985 4286546302
3.9988198 -1.2664142 -0.68862903 4288588708
3.5457602 1.0764205 -0.65100545 4283323199
3.6116736 1.0722651 -0.66254032 4281611316
4.1362529 1.1729144 -0.76159388 4286739821
4.1291599 1.1435782 -0.75884748 4281213211
4.1285071 1.1161687 -0.75738275 4284044881
4.1542902 1.0958289 -0.76104462 4281875250
4.0952392 1.0534251 -0.74841118 4281941823
4.5624647 1.1140565 -0.83556366 4283846987
5.3697777 1.2762545 -0.98881298 4286673776
5.1849813 1.1987841 -0.95201117 4281869862
5.0675454 1.1389318 -0.92820901 4280885022
5.0946083 1.1122183 -0.93205398 4284437066
5.1167254 1.0841968 -0.93498343 4279569152
5.5624042 1.1429822 -1.0184741 4281211411
5.5789547 1.1107495 -1.020305 4280421644
5.5885606 1.0770547 -1.0208544 4279961863
5.6066623 1.0449042 -1.0230515 4280290830
5.634254 1.0143133 -1.0270796 4280028173
5.664587 0.98392755 -1.0316569 4280161558
5.6918488 0.95272082 -1.0356849 4280622889
5.7131171 0.92027891 -1.0386144 4280230190
5.7021403 0.88265103 -1.0355018 4279703331
5.7103662 0.8480798 -1.0360512 4290952131
5.6784768 0.80776697 -1.0290936 4279769890
5.7174211 0.77754372 -1.0355018 4280101175
5.6986861 0.73941326 -1.0311077 4280036158
5.7021399 0.7043125 -1.0309246 4279970619
5.7034245 0.66896814 -1.0303752 4279969849
5.70156 0.63330919 -1.0292767 4279243807
5.7033825 0.59810823 -1.0289105 4287860889
5.7069449 0.56310171 -1.0289105 4281217348
5.7073565 0.52780259 -1.0283612 4280363844
5.6889391 0.49091494 -1.0243331 4280296761
5.7241831 0.45858762 -1.0303752 4279703321
5.7013979 0.42157292 -1.0256149 4286013779
5.70682 0.3867811 -1.0261641 4282195216
5.6973114 0.35103273 -1.0239669 4280420613
1.8691899 0.10391919 -0.30953607 4290029738
1.8707743 0.092496447 -0.30971915 4284563764
1.8683599 0.080888897 -0.30916989 4280551424
1.8540848 0.068878949 -0.30642349 4280421120
1.8348199 0.05689593 -0.30276161 4283115792
1.8587215 0.04621822 -0.30715585 4285877555
1.8088408 0.033884112 -0.29781806 4291602063
1.7598639 0.022176066 -0.28866342 4282458904
1.7462035 0.011291376 -0.28610009 4282854954
1.7373921 0.00057569507 -0.28445226 4281738274
1.711803 -0.0099307066 -0.27969182 4281542439
1.7126927 -0.020445902 -0.27987492 4281805864
1.7046717 -0.030810494 -0.27841017 4282199591
1.6956053 -0.041053411 -0.27676234 4281673510
1.6972867 -0.051516775 -0.27712852 4281279780
5.6950364 -0.24375176 -1.0225022 4280689714
5.6787043 -0.2779693 -1.0197558 4285624186
5.643518 -0.31096667 -1.0135306 4285953145
5.6778092 -0.34781533 -1.020305 4283781196
5.6539898 -0.38119084 -1.0162771 4289833382
5.6750741 -0.41760901 -1.0206712 4287005313
5.6812253 -0.45312685 -1.0223191 4287006601
5.6783381 -0.48797762 -1.0223191 4287335568
5.678174 -0.52308083 -1.0228684 4287071883
5.6777925 -0.5582003 -1.0234177 4285229670
5.6771936 -0.59333491 -1.0239669 4286414203
5.6802864 -0.62891608 -1.0252486 4286021767
5.6782732 -0.66398638 -1.0256149 4281089359
5.6789703 -0.69941622 -1.0265303 4284111712
4.7542109 -0.61509728 -0.85368991 4281935134
4.7367086 -0.64240623 -0.85112661 4284038447
4.6995845 -0.66676009 -0.84490144 4280226056
4.691515 -0.69500715 -0.84416908 4280161552
4.6891055 -0.7240808 -0.84453529 4280096018
4.6632204 -0.7494055 -0.84050721 4280557339
4.6265354 -0.77265769 -0.83446515 4281083683
4.6100841 -0.79901558 -0.832268 4280228887
4.6002564 -0.82641786 -0.83135253 4280295197
4.5748024 -0.85085231 -0.82750756 4282662975
4.5521188 -0.87556297 -0.8242119 4283846220
4.5418396 -0.90251935 -0.82329643 4285162079
4.5034733 -0.92365205 -0.81707126 4282661946
5.6162963 -1.1879442 -1.030009 4285687910
5.5339799 -1.2060494 -1.0157278 4284701008
5.4976983 -1.2335237 -1.010235 4288385926
5.4756579 -1.2639161 -1.0074885 4289239179
5.3616261 -1.2722881 -0.98716515 4288250237
5.2639389 -1.2832686 -0.96995431 4283446059
5.3131852 -1.3298695 -0.98093992 4291736230
5.1582899 -1.3247747 -0.95274353 4287001442
5.0825677 -1.3386183 -0.93974388 4286210394
5.0381927 -1.3600404 -0.93278635 4286800226
4.0803447 -1.1283036 -0.74932665 4286275685
4.0402389 -1.143942 -0.74291837 4285487198
4.0265341 -1.1667951 -0.74163669 4289105540
4.0645404 -1.2048953 -0.75042522 4280556048
4.0438995 -1.2258183 -0.74786186 4285956223
3.3960578 1.0773252 -0.66744727 4290953396
3.4054143 1.0573405 -0.66803104 4282989871
3.4118378 1.0364255 -0.66803104 4282071354
4.1146955 1.1952291 -0.81065577 4285226851
4.1290531 1.1446452 -0.81065577 4281278493
4.1492534 1.1228793 -0.81337988 4285357918
4.1522717 1.0963961 -0.81260157 4285424741
4.1617703 1.0716321 -0.81318527 4288255120
4.4346371 1.1130017 -0.86766678 4282136106
5.2912521 1.2937665 -1.0412292 4282791465
5.2160769 1.241498 -1.0243011 4282329374
5.2484407 1.2152276 -1.0293601 4282065948
5.0864277 1.1448392 -0.99492002 4282395683
5.1863022 1.1339514 -1.0137939 4282922279
5.4378281 1.1540877 -1.063411 4281868821
5.441925 1.1201062 -1.0628272 4282657572
5.4342666 1.0838133 -1.0599086 4282919717
5.4417772 1.050635 -1.0601032 4282921004
5.4953666 1.0260568 -1.0696374 4283185985
5.6531072 1.0196861 -1.100186 4280229163
5.6824493 0.98902142 -1.1048559 4280494140
5.7009859 0.95624799 -1.1073853 4280036170
5.7164292 0.92281455 -1.1093311 4279904331
5.7171383 0.88696891 -1.1083583 4284573569
5.7253833 0.85230631 -1.1089419 4279640634
5.7159395 0.81507999 -1.1060233 4279709515
5.7188892 0.77972692 -1.1056341 4279906643
5.71773 0.74386132 -1.1044667 4279840847
5.7134256 0.70767707 -1.1027155 4280037457
5.7157121 0.67237717 -1.1023264 4280299851
5.7177806 0.63707596 -1.1019372 4287006354
5.7215819 0.60198033 -1.1019372 4280429117
5.7251678 0.56686205 -1.1019372 4279972693
5.6904483 0.52817905 -1.0943487 4280169045
5.7287612 0.49630815 -1.1013534 4278193189
5.6994343 0.4585453 -1.0949324 4286611592
5.6913805 0.42276409 -1.092792 4286477678
5.6899538 0.38756704 -1.0920137 4281933074
5.6902661 0.35252514 -1.0916246 4283313964
1.8121263 0.10030619 -0.32071152 4289696384
1.8112608 0.077975415 -0.32032236 4283771679
1.8087647 0.066749826 -0.31973866 4283513135
1.794434 0.055188283 -0.31682 4286341980
1.8035641 0.044399805 -0.31857118 4287393382
1.8067447 0.033388793 -0.31915492 4289363830
1.7510098 0.021575829 -0.30806404 4285086007
1.7363962 0.010730558 -0.30514538 4283051050
1.722697 6.6142762e-05 -0.30242133 4281869599
1.7128561 -0.010451004 -0.30047554 4281542690
1.7049134 -0.020870049 -0.29891893 4281674278
1.7008301 -0.031261411 -0.29814062 4282001962
1.7006063 -0.041696921 -0.29814062 4281476899
1.7081621 -0.052365918 -0.29969725 4281411108
1.7029072 -0.062669024 -0.29872435 4281608232
5.7097631 -0.24245054 -1.0943487 4280625460
5.6964107 -0.27691135 -1.0920137 4279704099
5.6358385 -0.30865252 -1.0803392 4285690743
5.6778975 -0.34590256 -1.0890951 4285492844
5.6482644 -0.37890235 -1.083647 4283321932
5.6526814 -0.41405252 -1.085009 4286151031
5.6940365 -0.45221439 -1.093765 4285887861
5.6872454 -0.48681003 -1.0929867 4286348412
5.6782899 -0.52116042 -1.0918192 4286348414
5.6808434 -0.55656463 -1.0929867 4286414207
5.6773205 -0.59141111 -1.0929867 4286544762
5.6706605 -0.6259132 -1.0924029 4288980393
5.6842508 -0.66273695 -1.0959053 4281417033
5.6937075 -0.69927359 -1.0986294 4282402641
4.7310562 -0.6107347 -0.90697128 4286804852
4.7184711 -0.63857061 -0.90522009 4282854186
4.6824136 -0.66298062 -0.89879906 4281344292
4.674376 -0.69112599 -0.89802074 4280427052
5.6947842 -0.87747657 -1.1036884 4283191126
4.6800709 -0.75076258 -0.9009394 4280623908
4.6734409 -0.7791428 -0.90055025 4280820773
4.548718 -0.78709596 -0.8764227 4284965732
4.4984231 -0.80686402 -0.86727762 4284110672
4.4683123 -0.82980067 -0.86221862 4281742373
4.5016694 -0.86459249 -0.87000167 4282071081
4.5049396 -0.89391392 -0.87175286 4281412128
4.4666967 -0.9148556 -0.86513728 4280952097
4.4408436 -0.93799376 -0.86105114 4281675304
4.4158344 -0.96105772 -0.85715961 4281741095
4.3907099 -0.98385018 -0.85326809 4281676329
4.3702531 -1.0074711 -0.85034943 4280819480
4.3458529 -1.0299745 -0.84665251 4279700488
4.316577 -1.0510572 -0.84198266 4287199091
4.2881579 -1.0720575 -0.83750737 4292266181
4.2938523 -1.1015143 -0.84003687 4288844945
5.2537117 -1.3818887 -1.0383105 4291409835
5.2261915 -1.4089962 -1.0344191 4293052603
5.2221751 -1.4423416 -1.0353919 4280814336
4.1107225 -1.1628151 -0.80812627 4283973939
4.0959725 -1.185836 -0.8065697 4283449141
4.0933218 -1.2123374 -0.80754256 4279506189
3.3142776 1.0731845 -0.69525295 4288778376
3.3058763 1.0480986 -0.69195098 4283318585
4.0992975 1.1896611 -0.8607657 4284570974
4.1196995 1.168222 -0.86365491 4288189838
4.1324477 1.1444885 -0.8648932 4287597442
4.177176 1.1293219 -0.8731482 4287859329
4.1925421 1.1059153 -0.87500554 4286543212
4.1869292 1.0770018 -0.87232268 4287663232
5.278307 1.3231572 -1.1082093 4283385918
5.2036271 1.2705591 -1.0902547 4282790703
5.2408361 1.245618 -1.0966523 4283447350
5.2016668 1.2026407 -1.0865399 4282198053
5.1087074 1.1481799 -1.0648705 4283776568
5.2647882 1.1493576 -1.097065 4284038196
5.2659984 1.1158152 -1.0958267 4283511846
5.2871222 1.0864359 -1.0989224 4284170036
5.3253574 1.0602772 -1.1057328 4282723625
5.4874134 1.0575681 -1.1391655 4281213997
5.5611339 1.0364224 -1.1536118 4280494910
5.5876112 1.0059197 -1.1579456 4280036681
5.6129599 0.97496355 -1.1620731 4280103755
5.639102 0.94389552 -1.166407 4280890966
5.6602445 0.91176558 -1.169709 4288255414
5.6792703 0.87911242 -1.1725982 4279966525
5.6903639 0.8451106 -1.1738365 4280299091
5.7438793 0.81706607 -1.1841552 4279906643
5.749754 0.78193867 -1.1843616 4279710806
5.7457108 0.74551159 -1.1825043 4279381847
5.74435 0.70952326 -1.181266 4280038488
5.7427649 0.67357969 -1.1800277 4283983221
5.7351198 0.6370346 -1.1775513 4279377711
5.7398934 0.60193461 -1.1777576 4280432470
5.7308202 0.56545573 -1.1750748 4279841873
5.7526937 0.53199214 -1.1789958 4279973198
5.7422018 0.49550748 -1.1761067 4278785315
5.7090464 0.45737594 -1.1684707 4288453010
5.6990595 0.42140013 -1.1657879 4284963402
5.6751795 0.38463882 -1.1602157 4282788893
1.8432026 0.11382838 -0.3499876 4284034847
1.8467972 0.1026789 -0.35060671 4282393884
1.8473927 0.091345221 -0.35060671 4282985762
1.8322773 0.079334185 -0.34730473 4283247904
1.815129 0.067439869 -0.34358996 4284958522
1.8262666 0.056632511 -0.34586009 4284102702
1.838318 0.04571512 -0.34833661 4284431917
1.8405205 0.034470785 -0.34874934 4285352754
1.7389439 0.021917047 -0.32728636 4284433716
1.7155627 0.011100022 -0.32233334 4282922540
1.7067924 0.00057235721 -0.32047597 4281607458
1.7018714 -0.0098708495 -0.31944409 4281673510
1.7076492 -0.020384554 -0.32068235 4281936682
1.7153186 -0.03100534 -0.32233334 4281870889
1.704336 -0.041266784 -0.32006323 4281477412
1.7050288 -0.051753525 -0.32026961 4281214246
1.7271688 -0.063040301 -0.32501623 4281082403
5.7299199 -0.24524717 -1.1701218 4281083434
5.7195115 -0.27996954 -1.1682644 4282466114
5.6649284 -0.31214789 -1.1571201 4285559155
5.7049022 -0.34947681 -1.1659943 4284767842
5.6255264 -0.37926993 -1.1496906 4285885553
5.6260204 -0.41399595 -1.1503098 4285886321
5.6906753 -0.45388114 -1.1645496 4286610557
5.6955819 -0.48946071 -1.1662006 4286216826
5.6875997 -0.5239498 -1.1651688 4286217339
5.6881733 -0.55922157 -1.1659943 4286085753
5.6914468 -0.59482551 -1.1674389 4287005566
5.6828275 -0.6291976 -1.166407 4285953143
5.6788597 -0.66405493 -1.166407 4281151551
5.721292 -0.70463139 -1.176313 4280890699
5.7226834 -0.74047703 -1.1775513 4280497483
5.7180319 -0.77557689 -1.1775513 4280693574
5.7121968 -0.81050992 -1.1773449 4283783263
4.7072773 -0.69734341 -0.96415949 4284244324
5.7192264 -0.88323557 -1.1810596 4287794569
5.7175632 -0.9189328 -1.1818851 4291739059
4.8171763 -0.80451185 -0.99057555 4281081615
4.7745495 -0.82753444 -0.9825269 4282988842
4.7828646 -0.85923827 -0.98541617 4282660397
4.8044372 -0.89358103 -0.99119461 4281215527
5.6319165 -1.0833466 -1.1701218 4281085231
4.79215 -0.95228076 -0.99098825 4282135601
4.7747145 -0.97930688 -0.9885118 4282989620
4.8586001 -1.0276251 -1.0079111 4282265384
4.9038286 -1.0686722 -1.0190552 4282397225
4.9515977 -1.1109554 -1.0308187 4282199591
4.8407688 -1.1173222 -1.0083238 4282003752
4.3540039 -1.0331095 -0.90431082 4280621590
4.3333235 -1.0563285 -0.9012152 4280291080
4.3153701 -1.0800456 -0.89873868 4281738525
4.266963 -1.0957915 -0.88965815 4281672732
4.2516437 -1.1197088 -0.88780081 4282330401
4.2220216 -1.1396534 -0.88284779 4284696631
4.1866574 -1.1577119 -0.87665653 4284300333
4.1512322 -1.1753794 -0.87046528 4283576871
4.1373634 -1.1989219 -0.8690207 4282132513
5.0577059 -1.4994084 -1.0731255 4286548865
3.1890068 1.0753368 -0.7119453 4284505430
3.2233424 1.0649438 -0.71848446 4284834646
3.2307448 1.0454464 -0.71870244 4283914572
4.0941958 1.1605344 -0.91073656 4284307800
4.1068826 1.1369549 -0.91204441 4284108881
4.1524076 1.1221838 -0.92098129 4284174931
4.1714816 1.0999223 -0.92381495 4288453786
4.209342 1.0823345 -0.93100804 4286610555
5.1256042 1.2847128 -1.14048 4280752406
5.1381311 1.2543968 -1.1415699 4287725178
5.1542759 1.2248789 -1.1435317 4285027411
5.0894322 1.1765079 -1.1269658 4282132771
5.099412 1.1459001 -1.1276196 4284037422
5.1416245 1.1222978 -1.1356846 4284628269
5.1713271 1.0955878 -1.140916 4284563253
5.1999393 1.0683589 -1.1459293 4282264365
5.419837 1.0789708 -1.1945373 4280822329
5.4512711 1.0505018 -1.2002046 4280234050
5.4911928 1.0232984 -1.2078336 4280169037
5.5165777 0.99304801 -1.2121931 4280104532
5.5466056 0.96336043 -1.2176424 4280366422
5.5803256 0.93398678 -1.2239636 4285560211
5.5975137 0.90159369 -1.2265793 4282004819
5.6646638 0.87679785 -1.2405295 4280695389
5.660284 0.84058791 -1.2383499 4279974489
5.6846595 0.80859399 -1.2427093 4280039003
5.7030525 0.77554226 -1.2457609 4279906910
5.718349 0.74191779 -1.2481587 4279315794
5.7382913 0.70873392 -1.2516462 4284113268
5.7561016 0.67510539 -1.2546978 4281677644
5.7562561 0.63934219 -1.2538259 4280431441
5.7591004 0.60390848 -1.253608 4279579481
5.7636685 0.56865591 -1.2538259 4279841873
5.7544155 0.53210926 -1.2509923 4279446339
5.764379 0.49737945 -1.2525181 4278983983
5.7303548 0.45903173 -1.2442352 4281412146
5.7204108 0.42292425 -1.2414014 4286540391
1.8397501 0.12387728 -0.37212554 4285617479
5.6910763 0.35058689 -1.2337724 4282463551
5.6999416 0.3160401 -1.2352983 4286148988
1.8582894 0.09081275 -0.37583107 4284299314
1.870512 0.079916 -0.37844676 4283576356
1.8660909 0.068255827 -0.37735689 4284563762
1.8411119 0.05601665 -0.37168959 4283907115
1.8648367 0.045302257 -0.37692094 4286801227
1.8260483 0.033125941 -0.36820203 4286998347
1.7178948 0.020551335 -0.34400702 4286471502
1.7033495 0.0099148881 -0.34073743 4281343257
1.6965466 -0.00053938839 -0.33921161 4281673251
1.6965114 -0.010949193 -0.33921161 4281607717
1.7159299 -0.021590875 -0.34357107 4281805096
1.7001524 -0.031837583 -0.34008351 4281673510
1.7048035 -0.042386867 -0.34117338 4281411104
1.7152419 -0.053171873 -0.34357107 4281279520
1.7187845 -0.06383764 -0.34444296 4281016610
5.7385745 -0.24566929 -1.2431452 4280950817
5.6784716 -0.27802432 -1.2300669 4281938739
5.7078424 -0.31457376 -1.2370421 4285492844
5.7038565 -0.34947154 -1.2366061 4285098084
5.6509695 -0.38105917 -1.2252715 4285163109
5.649498 -0.41579714 -1.2254895 4286610044
5.6721354 -0.45246652 -1.2311567 4286216313
5.7013412 -0.49001288 -1.2383499 4285822581
5.700171 -0.52516514 -1.2387857 4285757302
5.6968417 -0.56013083 -1.2387857 4286151292
5.6913557 -0.59487289 -1.2383499 4286084727
5.6905088 -0.6301049 -1.2390038 4289507767
5.7088308 -0.66761208 -1.2440171 4280035382
5.7210941 -0.70465302 -1.2477227 4279444023
5.7244058 -0.74074411 -1.2494664 4281024079
5.7284575 -0.77703339 -1.2514282 4291413459
4.7311888 -0.67155337 -1.02757 4288845985
4.7231174 -0.69999945 -1.0266981 4282270022
5.7160773 -0.88279015 -1.2520821 4284048239
5.6941724 -0.91521722 -1.2483766 4291146675
4.803772 -0.80255586 -1.0480595 4281800975
4.769908 -0.8270213 -1.0415204 4282659879
4.7762709 -0.85834205 -1.044136 4282135593
4.7795506 -0.88923711 -1.0460978 4281282864
5.5819526 -1.0738 -1.2298489 4280102974
5.5446262 -1.1019485 -1.2228738 4280234561
5.5062094 -1.1294838 -1.2156807 4281350989
5.4838972 -1.1600195 -1.2121931 4280953394
4.7471628 -1.0348076 -1.0454439 4282464307
4.7473903 -1.0654105 -1.0469697 4282924343
4.7692938 -1.1010994 -1.0535089 4282860095
5.3312755 -1.2652073 -1.1840746 4284571989
5.3120327 -1.2951241 -1.181459 4293449928
5.0474052 -1.2635245 -1.1223882 4288050283
4.9582591 -1.2736082 -1.1036426 4287657072
4.7729135 -1.2573106 -1.0626637 4281868059
4.7472057 -1.2817438 -1.0585222 4281605916
4.7646508 -1.3178664 -1.0644075 4281277210
4.170485 -1.1812692 -0.92839241 4280685073
4.8109279 -1.3944257 -1.0790117 4280882703
4.8097672 -1.4261366 -1.0807555 4290879892
4.9531736 -1.501744 -1.1162851 4288314735
4.8944554 -1.5168078 -1.1047325 4286675819
3.116487 1.0729306 -0.73741484 4285755244
3.1248562 1.0544101 -0.73787391 4284371789
3.128495 1.0343002 -0.7371853 4280161037
4.0935926 1.1880062 -0.96534818 4285820780
4.0830135 1.1578224 -0.96098691 4282924347
4.0797224 1.129891 -0.958462 4282924345
4.1316791 1.117026 -0.96947998 4283582786
4.1770415 1.1018281 -0.97889107 4284701782
4.1808958 1.0754503 -0.97820252 4281672998
5.0097313 1.2558511 -1.1781319 4281209875
5.0116696 1.2237036 -1.1767546 4282722598
5.027606 1.1949545 -1.1788205 4281276951
5.0073423 1.1577271 -1.1721638 4281080860
5.0077047 1.1254873 -1.170557 4281805096
5.0344853 1.0990974 -1.1753774 4281871919
5.2382345 1.1099347 -1.2228922 4280428079
5.3135905 1.0918729 -1.2394191 4280497481
5.3411913 1.0634284 -1.2444689 4280563541
5.3753314 1.035975 -1.2511257 4280499027
5.4131627 1.0088556 -1.2587005 4280106073
5.448946 0.98096597 -1.2658162 4281156443
5.4711652 0.95034391 -1.2697184 4290429653
5.5172119 0.92350137 -1.2793591 4281085247
5.5391097 0.89226133 -1.2832613 4281748844
5.5771832 0.86331713 -1.2910657 4279712094
5.5997052 0.83165246 -1.2951974 4280105562
5.624938 0.80015481 -1.3000177 4280236382
5.6442084 0.76759219 -1.3034608 4280236380
5.6632905 0.73482317 -1.306904 4279380029
5.6802502 0.70161021 -1.3098879 4284113004
5.7076488 0.66946328 -1.3153969 4279575617
5.7387342 0.63743597 -1.3218241 4279972182
5.7473779 0.60271895 -1.3229717 4279775827
5.7625909 0.56858844 -1.3257262 4279775308
5.7824473 0.5347417 -1.3296283 4279905863
5.7943468 0.5000037 -1.3316942 4281939521
5.7711105 0.46234399 -1.3254967 4285421130
5.7126875 0.42240694 -1.3110356 4282528560
1.8726246 0.12717763 -0.40274528 4290752416
1.8714268 0.11556545 -0.4022862 4285224780
1.8779315 0.10440338 -0.40366346 4284304203
1.8756204 0.092735052 -0.40297481 4284831321
1.8722645 0.081057131 -0.40205666 4284832604
1.868836 0.069423884 -0.40113851 4285160026
1.8458787 0.057236526 -0.39562955 4283183148
1.8452222 0.045885358 -0.39539999 4285484605
1.8201675 0.034093868 -0.38943195 4287063886
1.7483238 0.022033185 -0.37244597 4286670660
1.7455063 0.011287021 -0.37175736 4284105005
1.7348365 0.00057541631 -0.36923242 4281673249
1.7241012 -0.010004826 -0.36670747 4281279782
1.7337396 -0.0207019 -0.36900288 4281345572
1.7355262 -0.031375155 -0.36946195 4281673508
1.729463 -0.041880876 -0.36808473 4281476897
1.7369562 -0.052729867 -0.36992103 4281280033
1.7511896 -0.063922413 -0.37336415 4280950815
5.594686 -0.23944986 -1.2807363 4282466364
5.768095 -0.28235096 -1.3220536 4280491806
5.6962824 -0.3138777 -1.3055266 4280425502
5.6971641 -0.34900227 -1.3062153 4285492076
5.6958866 -0.38401836 -1.3064449 4284506208
5.6526546 -0.41595769 -1.2968042 4280755746
5.6461153 -0.45032409 -1.2958859 4285229670
5.6888227 -0.48887938 -1.3066744 4285558637
5.6886234 -0.52404416 -1.307363 4285690482
5.6901441 -0.55941552 -1.3085107 4285821037
5.6972528 -0.59543258 -1.3110356 4285360226
5.6934919 -0.63037908 -1.3110356 4286085238
5.747519 -0.67208833 -1.324808 4280166703
5.749083 -0.70805603 -1.3261852 4279970619
5.7571783 -0.7449429 -1.3291693 4280233287
5.7496057 -0.77986157 -1.3284807 4283914081
4.7280741 -0.6708045 -1.0863159 4284176479
5.702054 -0.8447938 -1.3195286 4280497733
5.6717544 -0.8759011 -1.3135606 4282603111
5.6614685 -0.9099133 -1.3124129 4284176481
4.8407469 -0.8084504 -1.1175333 4281143304
4.8040485 -0.83264977 -1.1099584 4282725418
4.801723 -0.86262769 -1.1106471 4282529068
4.8250461 -0.8974157 -1.1175333 4281284409
5.5219355 -1.062183 -1.2862453 4280892490
5.4990854 -1.0928187 -1.2823431 4281089099
5.4407911 -1.1159759 -1.2699479 4280034091
5.4119401 -1.1447049 -1.2646685 4283848804
5.3135223 -1.1579882 -1.2426326 4280891718
5.3433537 -1.1988822 -1.2515848 4281354843
5.314085 -1.2266096 -1.2463053 4290296778
5.2808905 -1.2531239 -1.2401078 4290294187
4.7482996 -1.1575248 -1.112713 4282531891
4.7533822 -1.1897111 -1.1156969 4282396192
4.838376 -1.2425883 -1.1381919 4284563002
4.8711319 -1.2829149 -1.1480621 4291272857
4.8340392 -1.3049139 -1.1409464 4282197285
4.8400121 -1.3384428 -1.1443895 4281344033
4.834518 -1.368911 -1.1450781 4280226834
4.8344407 -1.4009881 -1.147144 4291475890
4.8332186 -1.4328389 -1.1489803 4287130208
4.8392391 -1.4669871 -1.152653 4288642679
4.8394432 -1.4995338 -1.1549484 4283514677
4.8218002 -1.5265554 -1.1528825 4288910477
4.62713 -1.4962069 -1.1069745 4288119933
4.5614853 -1.5059527 -1.0929725 4287526506
4.5447807 -1.5314261 -1.0911362 4285222713
4.5417414 -1.5614992 -1.0927429 4286341957
4.5256453 -1.5870823 -1.0911362 4289107832
4.5414824 -1.6239995 -1.0975633 4293780928
4.5405765 -1.655169 -1.0998586 4294769613
4.5221233 -1.6799473 -1.0977929 4294305193
4.4962564 -1.7018044 -1.0938907 4287198267
4.4884543 -1.7304114 -1.0945792 4288317011
4.5112724 -1.7710823 -1.1030723 4286086235
3.0419035 1.0674304 -0.75950009 4285097308
3.0548196 1.0509582 -0.76118529 4284568905
3.15501 1.0638599 -0.78574038 4281936419
3.0942097 1.022231 -0.7681666 4282004016
4.0340552 1.22413 -1.0055326 4282137670
4.0833588 1.211792 -1.0163658 4282597700
3.9303987 1.1401582 -0.97495914 4290163377
4.0671091 1.1528484 -1.0084214 4287006591
4.8579178 1.3450941 -1.2101585 4286938740
4.8595209 1.3134868 -1.2084733 4285291088
4.8618584 1.2821583 -1.2070289 4284697919
4.2041502 1.0809979 -1.0365876 4284369972
4.8800507 1.2231078 -1.207751 4284565041
4.8733211 1.1896855 -1.2041401 4284827186
4.8852501 1.1608839 -1.2053437 4284760106
4.9017372 1.1330749 -1.207751 4283774500
4.921854 1.1059592 -1.2111213 4282659115
5.1343112 1.1206996 -1.2633611 4281020996
5.1828671 1.0980355 -1.2739536 4280629849
5.2218308 1.0728618 -1.2821386 4281089634
5.2682939 1.0487685 -1.2922494 4280894559
5.3184686 1.0248808 -1.3033234 4280960093
5.3513727 0.99721235 -1.310064 4280037197
5.3755393 0.96762913 -1.314638 4291942884
5.4043255 0.93861818 -1.3204156 4279247666
5.4281707 0.90848815 -1.3249897 4280500573
5.4815531 0.88289136 -1.3370265 4280698728
5.5031724 0.85176784 -1.3411189 4280501347
5.5236559 0.82026935 -1.3449707 4280172132
5.55549 0.79019392 -1.3517114 4280040549
5.5823531 0.75910378 -1.3572483 4279972434
5.6013436 0.72671294 -1.3608594 4287403422
5.6230354 0.69447505 -1.3651925 4281547869
5.6416502 0.66165847 -1.3688036 4280366944
5.6899772 0.63196713 -1.3798774 4280038236
5.6898866 0.59663647 -1.3789146 4279774803
5.7224169 0.56457758 -1.3861367 4279907413
5.7325387 0.53008181 -1.3878218 4280102205
5.7550225 0.49657029 -1.3926365 4283780427
5.7773108 0.46280274 -1.3974513 4280821040
5.7877851 0.42791918 -1.3993771 4279901235
1.865554 0.1256312 -0.42367297 4284695350
1.9127895 0.11705608 -0.43522832 4282328358
5.802434 0.32174397 -1.4013031 4278980125
5.8072071 0.28627875 -1.4020252 4279505697
5.8040056 0.25043085 -1.4008216 4280229160
1.8442819 0.067444451 -0.41765457 4287531657
1.8330194 0.055765297 -0.41476575 4286146395
1.8323569 0.044492871 -0.414525 4286473032
1.8490925 0.033558734 -0.41861752 4286932033
1.7560943 0.021034306 -0.39550683 4285814835
1.736779 0.010132411 -0.39069211 4282854423
1.7203084 -0.00053057552 -0.3865996 4281540633
1.7144493 -0.011052607 -0.38515517 4281345572
1.7201724 -0.021641368 -0.3865996 4281739301
1.7258298 -0.03230077 -0.388044 4281804833
1.715896 -0.042655058 -0.38563666 4281476129
1.7233632 -0.0534181 -0.38756254 4281279522
1.7346423 -0.064415827 -0.39045137 4281148194
1.7400327 -0.075306073 -0.3918958 4280754467
5.8160291 -0.28473094 -1.4041919 4280756783
5.7889748 -0.31902856 -1.3979328 4281348657
5.7830334 -0.35430637 -1.3969698 4281874486
5.7788138 -0.38965353 -1.3964883 4280888106
5.7172666 -0.42077076 -1.3818034 4281742900
5.6700706 -0.45230225 -1.3707296 4281347635
5.7716298 -0.49603951 -1.396729 4281018928
5.778142 -0.53233272 -1.3991364 4279902503
5.7747674 -0.56777668 -1.3991364 4279573287
5.7682786 -0.60289723 -1.3984143 4279968811
5.7567534 -0.63742632 -1.3964883 4279705898
5.7344165 -0.67059886 -1.3919144 4280166966
5.7215238 -0.70470589 -1.3897477 4280822840
5.7065039 -0.73843127 -1.3870996 4279576646
5.689362 -0.77173835 -1.38397 4280364355
5.6518459 -0.80200344 -1.375785 4287403679
5.6439381 -0.8362413 -1.3750628 4280694351
5.6329451 -0.86996841 -1.3736184 4282010461
5.608335 -0.90143847 -1.3688036 4283648591
4.8310652 -0.80710894 -1.1747702 4281471758
4.7963748 -0.83160365 -1.1673074 4282659364
4.7950029 -0.86170375 -1.1682703 4282463529
4.8354301 -0.89961964 -1.1798257 4281874239
5.4446025 -1.0474072 -1.3351005 4281021761
5.3657203 -1.0664309 -1.3168046 4279769900
5.3885517 -1.1053742 -1.3242674 4282993496
5.2268796 -1.105708 -1.2850274 4280034102
5.3062987 -1.1565496 -1.3069344 4281419612
5.2896318 -1.1869636 -1.304527 4280891720
5.258605 -1.2139449 -1.2985086 4294179321
5.2180028 -1.2383512 -1.2900828 4294770683
5.1839018 -1.2639133 -1.2833422 4293454565
5.1242614 -1.2827457 -1.2701018 4293849327
4.9649334 -1.2753208 -1.2313433 4279507221
4.8734765 -1.2837762 -1.2099177 4282924353
4.7361884 -1.278772 -1.1766961 4281541914
4.7535124 -1.3147887 -1.1831959 4286340425
4.7752409 -1.3523872 -1.1908995 4286209369
4.7649884 -1.3811221 -1.190418 4294829279
4.6363759 -1.3747684 -1.159363 4293380294
4.6111331 -1.3981255 -1.1550298 4284561208
4.6970372 -1.4556764 -1.1795849 4281469189
4.7389131 -1.5005724 -1.1928254 4283048472
4.6058588 -1.4896289 -1.1605668 4287720530
4.5846496 -1.5139084 -1.1574372 4285681960
4.4897294 -1.5132027 -1.1350487 4287655997
4.4583302 -1.5331531 -1.129271 4287262775
4.4442592 -1.5588747 -1.1280674 4288314693
4.4391804 -1.5877481 -1.129271 4288250177
4.4676566 -1.6289108 -1.139382 4289830238
4.4785056 -1.6640635 -1.1449189 4284892683
4.465487 -1.6904814 -1.1441966 4286799659
4.4658985 -1.7220371 -1.1470855 4286865705
4.4633799 -1.7525976 -1.1492522 4286671424
4.4723716 -1.7878727 -1.1545483 4285297505
4.0685811 1.4840968 -1.0885993 4286214264
4.0830779 1.4610603 -1.0901127 4284767058
2.983458 1.0470864 -0.78389549 4283515706
3.0200236 1.0391467 -0.79221934 4282200620
3.1831436 1.0734544 -0.83535206 4280953384
3.9823463 1.2886628 -1.0507635 4285756786
4.0842733 1.2940056 -1.0764918 4286413427
4.0708785 1.2623309 -1.0706904 4283584328
3.8652644 1.1467941 -1.0106577 4280031247
3.9419329 1.1432647 -1.0295756 4279636235
4.1164584 1.16653 -1.0749785 4284635989
4.7484007 1.3141284 -1.243978 4285420102
4.7619796 1.2864817 -1.2454915 4280878594
4.7660408 1.2562524 -1.2444825 4284760884
4.6096458 1.1848419 -1.2003409 4285089845
4.7397962 1.1873285 -1.233384 4284826924
4.764854 1.1625799 -1.2381766 4284761135
4.7756643 1.1342155 -1.2391855 4284496944
4.7929049 1.1072865 -1.2419602 4282460457
5.0092139 1.1249108 -1.2979571 4280756536
5.0103493 1.0929167 -1.2964436 4280435038
5.0491486 1.0689652 -1.3050197 4280238951
5.1646218 1.0603362 -1.3340271 4280828515
5.2146888 1.0373079 -1.34563 4281090915
5.2580137 1.0124245 -1.3554673 4281154643
5.2917161 0.98527747 -1.3627822 4286088597
5.300519 0.95330328 -1.363539 4281682527
5.3472662 0.9278729 -1.3743852 4280828766
5.3891268 0.90110689 -1.3839703 4280829796
5.4203501 0.87217164 -1.3907807 4280829283
5.4485512 0.84244365 -1.3968344 4280828769
5.4794621 0.812828 -1.4036448 4280956492
5.5178785 0.78395307 -1.4124732 4292861143
5.5379262 0.75216389 -1.416509 4289633935
5.559711 0.72040677 -1.4210492 4292330939
5.5717096 0.68722653 -1.4230672 4292861408
5.6171494 0.6578635 -1.4339135 4294045156
5.6278124 0.62413108 -1.4356791 4294372327
5.6536717 0.59190369 -1.4414806 4293056465
5.6687536 0.55833966 -1.4445075 4291213737
5.6903801 0.52523494 -1.4492999 4285487425
5.7079577 0.4915539 -1.4530835 4291211419
5.7475204 0.45944893 -1.4626685 4290291094
5.701014 0.42054692 -1.4498044 4290686104
1.8570703 0.12580165 -0.44488725 4285291615
1.8597388 0.11452307 -0.44539174 4284572262
5.7387071 0.31724572 -1.4578761 4288842881
5.7695413 0.28345025 -1.4654433 4285025606
5.7615037 0.24762881 -1.4629208 4281144846
5.7377725 0.21134785 -1.4563626 4290221198
1.8198193 0.056118783 -0.43429324 4287986281
1.8075536 0.044643626 -0.43101415 4286998855
1.8000535 0.03340986 -0.42899624 4287590992
1.7711968 0.022009967 -0.4214291 4288512866
1.7567838 0.01105358 -0.41764551 4284170546
1.7413359 0.00027496266 -0.41360971 4281869852
1.716146 -0.010253659 -0.4070515 4281542951
1.7266943 -0.020914858 -0.40982613 4281871655
1.7391109 -0.031741634 -0.41310525 4282002467
1.727275 -0.042126291 -0.41007838 4281936421
1.7327871 -0.052902333 -0.4115918 4281410336
1.7614403 -0.064603925 -0.41915897 4281082401
1.7581104 -0.075285867 -0.41840222 4280753695
5.6139364 -0.27577391 -1.4248328 4279896576
5.4420896 -0.30080381 -1.3804389 4280092416
5.3696351 -0.32985389 -1.3620255 4282591263
5.3723373 -0.36312178 -1.3632867 4280881161
5.4346657 -0.40085268 -1.3801867 4289040774
5.5372434 -0.44260305 -1.4076806 4289633162
5.5556335 -0.47839847 -1.4132299 4288844672
5.7212172 -0.52805328 -1.4573716 4286609254
5.7120914 -0.56257856 -1.4558581 4288450428
5.7085319 -0.59761667 -1.4558581 4290095515
5.7095661 -0.6331659 -1.4571193 4281016857
5.6978846 -0.66728634 -1.4551015 4281148447
5.6802382 -0.70057607 -1.4515702 4283582794
5.6575994 -0.73305249 -1.4467776 4280824128
5.6366949 -0.76553816 -1.4424895 4280431177
5.6136885 -0.79752249 -1.4376971 4290890976
5.5972033 -0.83024788 -1.4346701 4279639601
5.5795717 -0.86265308 -1.431391 4281615703
5.5378695 -0.89102864 -1.421806 4282401608
4.8594422 -0.81244326 -1.243978 4282724907
4.8257637 -0.83728004 -1.2364109 4282397734
4.8195825 -0.86670321 -1.2361586 4282725935
4.8265409 -0.89856261 -1.2394377 4282662713
5.2627797 -1.0132641 -1.3567286 4279771434
5.3475733 -1.0636657 -1.3809434 4282139727
5.0613203 -1.0390319 -1.3065331 4278653981
5.3095045 -1.1239961 -1.3743852 4280234299
5.241055 -1.1431453 -1.3579897 4279247906
5.2329984 -1.1750702 -1.3577375 4294310903
5.2049475 -1.202364 -1.3521882 4294309103
5.1598134 -1.2253324 -1.3420987 4294309868
5.0854521 -1.2406805 -1.3241898 4293453025
4.9604125 -1.2424628 -1.29266 4279506971
4.8674111 -1.2509505 -1.2697064 4284247917
4.7482967 -1.2514371 -1.2396899 4282470223
4.8544965 -1.311344 -1.2704631 4281679671
4.6710305 -1.2925739 -1.2230422 4293447600
4.6509089 -1.3177801 -1.2197632 4287718969
4.6325121 -1.3433275 -1.2169886 4285018646
4.620472 -1.3706255 -1.2159796 4286203949
4.6369767 -1.4065365 -1.22279 4287586370
4.6254864 -1.4341021 -1.2220333 4284231448
4.6239796 -1.4647949 -1.2240512 4284690463
4.618587 -1.4943312 -1.2250602 4288899160
4.5845232 -1.5144451 -1.2182497 4285805090
4.4706149 -1.5072944 -1.1894946 4288174908
4.4539618 -1.5321784 -1.1874766 4287126056
4.4262156 -1.5530694 -1.1824319 4287258662
4.4175143 -1.5805249 -1.1826842 4286998059
4.4140964 -1.6099221 -1.1844498 4287131187
4.4331594 -1.6477669 -1.1925215 4287789644
4.4718313 -1.6934469 -1.2061423 4284696102
4.4866343 -1.7306064 -1.213205 4285091361
4.4939446 -1.7651802 -1.2182497 4285422384
4.5315456 -1.8121275 -1.2318707 4287792498
4.0149016 1.5217357 -1.130898 4280951846
4.0187387 1.4950525 -1.1293188 4288187785
4.0088072 1.4634132 -1.1237916 4284435775
2.9242752 1.0468775 -0.80689937 4282792233
4.0146317 1.4099497 -1.12037 4287724898
4.04601 1.3931482 -1.12695 4282001438
4.0791597 1.376632 -1.1340563 4285030485
4.0472312 1.3382396 -1.1224756 4285689694
4.0617905 1.3154635 -1.124318 4283518022
4.0789809 1.2934345 -1.12695 4282004015
3.7616186 1.1673493 -1.0340406 4287530881
3.7770178 1.1467716 -1.0364094 4283056442
3.9023516 1.1587597 -1.0700989 4282201646
4.1799026 1.2134013 -1.1469531 4281870887
4.1575718 1.1792988 -1.1385307 4283777338
4.6397824 1.2855101 -1.2730258 4284366124
4.6503768 1.2577729 -1.2738154 4284891189
4.5610008 1.2035908 -1.2464426 4284168747
4.6262226 1.1905034 -1.262761 4284564784
4.6362476 1.1627996 -1.2635505 4284957742
4.6639123 1.1393722 -1.269341 4284234797
4.6999092 1.1176596 -1.2775002 4282199342
4.9557438 1.1464806 -1.3472481 4280493875
4.9852734 1.1211364 -1.3535649 4279311667
4.9939437 1.0909384 -1.3540913 4286352036
4.9939375 1.0588733 -1.3522488 4281419102
5.0154595 1.0313237 -1.35646 4279510840
5.0150704 0.99920893 -1.3546176 4292734193
4.9718504 0.95890641 -1.3409313 4283585886
3.3047578 0.61597121 -0.87664723 4286812321
5.2766128 0.95074785 -1.4222599 4280764002
5.3080091 0.92282045 -1.4293664 4280499280
5.3278427 0.89262801 -1.4333143 4280499540
5.3560777 0.8636108 -1.4396311 4281157731
5.3841562 0.83428055 -1.4459479 4280827996
5.4197087 0.80577487 -1.4543703 4280959580
5.4541583 0.7767278 -1.4625294 4284046437
5.4855862 0.74689704 -1.4698991 4281872950
5.4996328 0.71446896 -1.4725311 4280230967
5.5058274 0.68094766 -1.4730574 4281085250
5.543437 0.6510976 -1.4822694 4280953915
5.5760918 0.62027723 -1.4901655 4280691004
5.5855498 0.58665711 -1.4917446 4280294443
5.6159253 0.55503619 -1.4991142 4288187015
5.5846429 0.5173561 -1.489639 4280622616
5.583868 0.48274645 -1.4885862 4281937963
1.868095 0.14917947 -0.47079349 4285816929
1.8622406 0.1372138 -0.46895111 4287789688
1.869785 0.12624384 -0.47079349 4286413694
5.6190686 0.3471179 -1.4954294 4281148706
5.6018281 0.31155789 -1.4901655 4282595127
5.6248322 0.27823284 -1.4959558 4283055164
5.5531826 0.24052608 -1.4759526 4282923324
5.4658599 0.20313261 -1.4517382 4279894528
1.8384509 0.05625242 -0.46131831 4288182118
1.8416548 0.045043446 -0.4621079 4286996286
1.793668 0.032828223 -0.44894791 4288245324
1.7581433 0.021364361 -0.43920952 4288510808
1.7408763 0.010460172 -0.43447194 4283905832
1.7322251 -0.0002265767 -0.43210313 4282065435
1.71772 -0.010774406 -0.42815515 4282002475
1.7099043 -0.021223433 -0.42604953 4281870630
1.711671 -0.031749271 -0.42657596 4282263844
1.711444 -0.042251289 -0.42657596 4282067237
1.7294742 -0.053303994 -0.43157673 4281411106
1.7358633 -0.064159736 -0.43341914 4280820512
1.7518229 -0.075504854 -0.43789354 4280032282
1.7705988 -0.087188661 -0.44315752 4282665031
1.7825534 -0.098736621 -0.4465791 4280755494
5.3082657 -0.324388 -1.4104159 4284832342
5.2888494 -0.35579106 -1.4056784 4282661432
5.3519936 -0.39302644 -1.4235759 4285950305
5.3754482 -0.42791966 -1.4306823 4284369724
5.4005966 -0.46327996 -1.4383152 4282989611
5.4331989 -0.49967003 -1.4480535 4281541147
5.5778933 -0.54747987 -1.4885862 4280228382
5.5744286 -0.58169484 -1.4885862 4280427044
5.5726724 -0.6160996 -1.4891126 4280427303
5.5754952 -0.65106314 -1.490955 4280230694
5.5608621 -0.68396819 -1.4880599 4280166442
5.5460358 -0.7167182 -1.4851646 4280363829
5.5510941 -0.75202769 -1.4877967 4280100405
5.5616593 -0.78823721 -1.4920079 4280625199
4.7111402 -0.69738978 -1.258813 4282796370
5.5420322 -0.85495913 -1.4893758 4280560435
5.4557133 -0.8759656 -1.4670038 4278650639
4.8783126 -0.81411844 -1.308821 4282987820
4.8332992 -0.83713049 -1.2977666 4282920746
4.817626 -0.86489856 -1.2948713 4282790190
4.8406844 -0.89972466 -1.3027673 4281475868
5.2746854 -1.0138047 -1.4248919 4283979355
5.0554461 -1.0039189 -1.365672 4278321925
5.14465 -1.054463 -1.3922552 4281279779
4.9851661 -1.0537245 -1.3496169 4283253057
5.0106587 -1.0912658 -1.3585656 4288516748
4.8494763 -1.0874087 -1.3154008 4293584351
4.7872462 -1.1043626 -1.2998722 4281151017
4.9634376 -1.1770836 -1.3511961 4286808961
4.9626832 -1.2091136 -1.3530384 4280493611
4.9682746 -1.242816 -1.3567232 4280626230
4.9755073 -1.2771116 -1.3609344 4280100397
4.9302564 -1.2978019 -1.3504064 4280102707
4.9072967 -1.3240114 -1.3461952 4279249200
4.8311949 -1.3353505 -1.3269817 4293851375
4.5425515 -1.2856932 -1.2474954 4288053355
4.5410643 -1.315419 -1.2493378 4294097821
4.5236568 -1.3405188 -1.2467058 4293502075
4.5134997 -1.3676912 -1.2461795 4293502328
4.5299063 -1.4030603 -1.2532858 4293698935
4.523972 -1.4317015 -1.2540754 4293435763
4.5123472 -1.4585437 -1.2532858 4292714098
4.506062 -1.4871098 -1.2540754 4294956729
4.4694223 -1.5054984 -1.2461795 4282783753
4.4646626 -1.5344605 -1.2474954 4284098842
4.4415059 -1.5570424 -1.2435474 4285284128
4.4082465 -1.5758281 -1.2367042 4286009391
4.3994012 -1.6031771 -1.2369674 4285223216
4.4645529 -1.6579993 -1.258813 4284696880
4.4651241 -1.6894562 -1.2619714 4285354810
4.4852834 -1.7286103 -1.2709202 4283642903
4.4772868 -1.7571555 -1.2717098 4285286938
4.4691091 -1.7856679 -1.2724993 4286601255
4.4982867 -1.8294014 -1.2843434 4287135323
4.0141644 1.5493511 -1.1874281 4290031529
4.0146031 1.5212849 -1.1846836 4289962900
2.7692435 1.0301125 -0.80263138 4288450187
2.7836423 1.0160677 -0.80510151 4287528297
4.0002789 1.4322251 -1.1720582 4286342986
4.0008259 1.4047865 -1.1695881 4280684800
3.1783066 1.0942054 -0.91872913 4282263066
3.9904284 1.3463644 -1.1613542 4287065151
3.9977014 1.3215525 -1.1610798 4286473016
4.0121388 1.2990712 -1.1630009 4285421381
4.0814509 1.2938927 -1.1813899 4288516223
3.7173491 1.1534494 -1.0702325 4280491277
4.1807561 1.2691202 -1.2063661 4290818987
4.443819 1.319227 -1.2823923 4287134070
4.4370542 1.2876488 -1.2780008 4282198053
4.4106412 1.2506958 -1.2678457 4285090376
4.5192466 1.2515755 -1.2977622 4280944640
4.5231276 1.2228186 -1.2966644 4285089077
4.5249667 1.1935712 -1.2950175 4284891700
4.5405874 1.1679394 -1.2974877 4284760112
4.5551295 1.1419268 -1.2996835 4284497194
4.5611167 1.1137276 -1.2994089 4282002475
4.8681769 1.1570743 -1.3875115 4280628030
4.8883014 1.1302135 -1.391354 4279708737
4.8960829 1.1004089 -1.3916284 4282339685
4.8275833 1.0539441 -1.3696713 4280232243
4.8029156 1.0177271 -1.3606142 4292467672
4.7826958 0.98282033 -1.3529292 4285229921
3.2655289 0.65031815 -0.90967184 4286417806
4.7849541 0.92223614 -1.3501846 4286345841
4.7924132 0.89321107 -1.3507335 4287666079
4.7731977 0.85936058 -1.3435974 4281288529
4.7660642 0.82791805 -1.3400295 4280760905
4.7577763 0.79643697 -1.336187 4280694603
5.3264995 0.85802829 -1.4992179 4280760144
5.341167 0.82679969 -1.5019624 4280959578
5.3680162 0.79725885 -1.508275 4281218888
5.3966079 0.76769036 -1.5151366 4288388007
5.4174151 0.73676473 -1.5198026 4280498764
5.4523492 0.70746762 -1.5285853 4279908945
5.4689946 0.67553091 -1.5321534 4280104784
5.448205 0.63905019 -1.5250173 4281089107
5.1347222 0.57038552 -1.4338957 4281219155
4.9736314 0.52162963 -1.3866881 4283450699
4.9652548 0.48996985 -1.3833946 4283448892
4.8436904 0.44799149 -1.3477144 4278913039
1.8610861 0.1608593 -0.4924885 4287795599
1.8629969 0.14951357 -0.49276292 4280491806
4.7975802 0.32521886 -1.3317956 4282005822
4.7898879 0.29518464 -1.3290509 4280758587
5.4550557 0.30253652 -1.5187047 4280954690
5.4683352 0.26962668 -1.5219982 4280299593
5.3334661 0.23019055 -1.4830245 4280829017
5.2329183 0.19369783 -1.4539315 4281747014
1.8402159 0.057062123 -0.4848035 4288380293
1.8809062 0.046765249 -0.49633098 4285087026
1.8061659 0.033834577 -0.47492284 4287389504
1.7736478 0.022346733 -0.46559113 4287655247
1.742981 0.011271251 -0.45680833 4283971876
1.7247469 0.00057431572 -0.45159352 4281934616
1.7122175 -0.0099332044 -0.44802552 4281870889
1.7169318 -0.020497462 -0.44939783 4281936682
1.7090825 -0.030891212 -0.44720212 4282068007
1.7136672 -0.041494835 -0.44857445 4282133800
1.7268363 -0.052420404 -0.45241693 4281477412
5.2028923 -0.22265421 -1.4456975 4279443746
5.1985464 -0.25443313 -1.4448742 4279772711
1.7912793 -0.098438293 -0.47135484 4278453511
5.1787162 -0.31720749 -1.4402083 4285364089
5.1670785 -0.34833002 -1.4374636 4280232234
5.1916957 -0.38200587 -1.4451487 4281812543
5.2285542 -0.41699156 -1.4564016 4286018410
5.3427811 -0.45911804 -1.489886 4281474843
5.3408208 -0.4919804 -1.4901606 4281081373
5.3463144 -0.52558911 -1.4926307 4281740330
5.3745494 -0.56168425 -1.501688 4281807407
5.3987188 -0.59772193 -1.5096474 4280820769
5.3128123 -0.62122625 -1.4860436 4279768851
5.3642545 -0.66063452 -1.5019624 4279638035
5.4278083 -0.70230216 -1.5214493 4279506199
5.3414502 -0.72447288 -1.4978455 4279769371
5.3530893 -0.75953132 -1.5025114 4282532159
5.3892303 -0.79842561 -1.5143132 4283715663
4.7503648 -0.73354554 -1.3312466 4279044108
5.4179521 -0.87075847 -1.5255662 4285755764
4.8993959 -0.81825018 -1.3770819 4281935645
4.8412256 -0.83909649 -1.361712 4283185963
4.8397717 -0.8694663 -1.3628098 4281278740
4.8419089 -0.90055341 -1.3650055 4281805866
4.8221278 -0.92752028 -1.3608886 4284176214
4.7993693 -0.95371598 -1.3559482 4282992707
4.8254542 -0.98971778 -1.36528 4282992191
4.8381057 -1.0232888 -1.3707693 4282531389
5.1662087 -1.1258729 -1.468478 4280295456
5.0306625 -1.1287009 -1.4308766 4283848789
4.9477491 -1.1420237 -1.4086452 4279900950
4.940649 -1.172361 -1.4086452 4283322186
5.0024948 -1.2195129 -1.4289553 4280032797
4.9967837 -1.2506518 -1.4295043 4280428849
4.9471045 -1.2705209 -1.4171535 4279969324
4.9038811 -1.2915428 -1.4067239 4285499275
4.8642993 -1.313085 -1.3973922 4293065201
4.8172259 -1.3321396 -1.3858647 4289121989
4.7738037 -1.3517145 -1.3754351 4292932853
4.4477096 -1.2888838 -1.2810199 4281541665
4.4148254 -1.3087689 -1.2736094 4284759092
4.4094725 -1.33667 -1.2744328 4284164893
4.4030247 -1.3642702 -1.2749817 4285151531
4.3945708 -1.3912611 -1.2749817 4284031755
4.4060798 -1.4247099 -1.2810199 4290085475
4.394516 -1.4508137 -1.2801965 4292190083
4.3973775 -1.4817433 -1.2837646 4292256130
4.3982053 -1.5121372 -1.2867837 4290676584
4.377048 -1.5349576 -1.2832156 4283509007
4.4599004 -1.5948188 -1.3112109 4282525452
4.4184113 -1.6106253 -1.3016046 4284960807
4.4093466 -1.6380408 -1.301879 4285619750
4.4064074 -1.6677889 -1.3040748 4286080041
4.4373627 -1.7107096 -1.3167001 4287460154
4.482276 -1.759696 -1.3337168 4285088794
4.4758587 -1.7889503 -1.3350891 4286206494
4.4763765 -1.8210918 -1.3386571 4285356327
4.4713373 -1.8510991 -1.3405783 4285362779
2.7350271 1.0554745 -0.83141279 4286609517
2.7199438 1.0305142 -0.82456827 4287923059
2.7558575 1.0248421 -0.83397943 4283381271
3.9909573 1.4568914 -1.2232591 4285158193
4.0124531 1.4369035 -1.2272516 4287857514
3.0943537 1.0864608 -0.93493551 4282659619
3.9491348 1.359762 -1.2018701 4285747761
3.9483232 1.3324378 -1.1990182 4286008866
3.9546046 1.3075838 -1.1984478 4286207037
3.9269948 1.2717673 -1.1873256 4288312423
3.904577 1.2380791 -1.1779144 4285483567
4.0439062 1.2550443 -1.2189813 4284366108
4.2221022 1.2820514 -1.2720259 4282853414
4.4173121 1.3118329 -1.330204 4285487436
4.1390343 1.2015256 -1.241511 4281998864
4.4164815 1.2528145 -1.3250706 4284695348
4.4287038 1.2269726 -1.3264966 4284366122
4.4407749 1.2010279 -1.3279226 4284563238
4.4452801 1.1730229 -1.327067 4284826410
4.4561071 1.1466814 -1.3282077 4284562735
4.4751439 1.1223519 -1.3319151 4282592811
4.7575326 1.1622676 -1.4163303 4281086009
4.8149247 1.1450404 -1.4317304 4280430653
4.7798409 1.1057439 -1.418897 4278585875
4.7313671 1.0639743 -1.402071 4293783019
4.7574697 1.0392233 -1.40806 4285559148
3.2364364 0.68580586 -0.9434911 4288388759
4.7886395 0.98462892 -1.4137636 4285690490
4.7964711 0.95560282 -1.4143341 4286020223
4.8041267 0.92651778 -1.4149045 4285756536
4.8059525 0.89631891 -1.4137636 4285493101
4.7962694 0.86409056 -1.4092007 4285558888
4.7920389 0.8330012 -1.4063488 4285690733
4.7876067 0.80199629 -1.403497 4285756275
4.7678366 0.76863283 -1.3960822 4285231220
5.3057013 0.82210666 -1.5566422 4280953648
5.3248658 0.79165339 -1.56092 4286611845
5.3353162 0.75977772 -1.562631 4280099886
1.8887333 0.25638774 -0.52626318 4287002480
1.8921719 0.24504125 -0.52683353 4294765280
1.885079 0.23236586 -0.52426684 4294698984
1.8864692 0.22079487 -0.52426684 4284433732
1.8877884 0.20921554 -0.52426684 4285288525
1.8852239 0.19722709 -0.52312613 4286736998
1.8816295 0.18518353 -0.5217002 4287198307
1.8855935 0.17390041 -0.52255577 4286342218
1.8952191 0.16307214 -0.5251224 4286670672
1.8818532 0.15028682 -0.52084464 4286997066
4.7779684 0.35388982 -1.3846747 4279568651
4.7666621 0.32365379 -1.380682 4279437063
1.8699512 0.11473315 -0.51656681 4284496672
4.7492213 0.26395977 -1.3744079 4279701528
4.7823424 0.23638335 -1.3838191 4278652700
1.8755764 0.080460742 -0.51770759 4286733132
1.8530476 0.068091676 -0.51086307 4285090360
1.8304384 0.056002151 -0.5040186 4293642420
1.8317057 0.044793781 -0.50430381 4285417772
1.8127801 0.0331905 -0.4986001 4287259963
1.76503 0.021452636 -0.48434076 4286801476
1.7497932 0.010519749 -0.47977778 4283973159
1.7316139 -0.00022690999 -0.47435924 4281670931
1.7267876 -0.010825098 -0.47293332 4281804837
1.7286054 -0.021442739 -0.47350368 4282462249
1.7332329 -0.032134458 -0.4749296 4282528039
1.7291703 -0.042676773 -0.47378889 4282330663
1.7317499 -0.053372595 -0.47464445 4281804835
1.7802398 -0.065769978 -0.48918894 4282068007
1.8018278 -0.077626638 -0.49574825 4284831824
1.8223792 -0.089704163 -0.50202233 4286080602
1.8476346 -0.10229867 -0.50972235 4286540124
1.8670627 -0.11485691 -0.51571125 4285750610
1.878755 -0.12714441 -0.51941872 4286408540
1.8769836 -0.13859984 -0.51913351 4285552977
1.8751425 -0.15003835 -0.5188483 4285026885
1.8789613 -0.16194974 -0.52027422 4284500281
1.9027483 -0.17575265 -0.5276891 4283251241
1.9092654 -0.1881718 -0.52997059 4280356611
1.9090282 -0.19998257 -0.53025579 4280292884
1.9220555 -0.21326926 -0.53453356 4281544235
1.9140464 -0.22428197 -0.53253728 4280360988
1.9154884 -0.23637253 -0.53339285 4280362276
5.2287202 -0.67577881 -1.5278383 4280100389
5.2919126 -0.7169705 -1.5480865 4281020470
5.2874136 -0.74942762 -1.5480865 4280691253
5.2495294 -0.77695227 -1.538105 4279836972
4.7558579 -0.73384565 -1.3909488 4288453277
4.8572607 -0.78000867 -1.4228897 4280557599
4.862783 -0.81153059 -1.4260267 4289501589
4.8416562 -0.8385759 -1.4211786 4283905332
4.8364201 -0.86826795 -1.4211786 4283777344
4.8451366 -0.9005512 -1.4254563 4282266936
5.2546258 -1.0099537 -1.5512236 4280823091
5.2248263 -1.0375147 -1.544094 4280889913
5.1160116 -1.0485998 -1.5130086 4280626226
5.1254234 -1.0833372 -1.5178567 4288849326
5.0147209 -1.0921496 -1.486201 4284111976
4.9957662 -1.1201754 -1.4824936 4281479738
4.9813275 -1.149086 -1.4802122 4288782494
4.9210215 -1.1670349 -1.4639565 4286213730
4.9156303 -1.197661 -1.4645269 4280885273
4.9509635 -1.2384897 -1.4776455 4279769122
4.9061341 -1.2593217 -1.466238 4280035893
4.8584552 -1.2789191 -1.453975 4279642928
4.8116484 -1.2982286 -1.4419972 4289971380
4.7629404 -1.3165021 -1.429449 4288791213
4.7215695 -1.3363135 -1.4191822 4289057745
4.656199 -1.3487394 -1.4015007 4292669932
4.3399572 -1.2861319 -1.3059632 4282462763
4.3273973 -1.3113484 -1.3045373 4283380517
4.3000417 -1.3319257 -1.2985483 4284167715
4.2936158 -1.3588632 -1.2991188 4285812541
4.286109 -1.3854774 -1.2994039 4287192653
4.2747965 -1.4108498 -1.2985483 4286137909
4.2796855 -1.4416391 -1.3028262 4285349161
4.2870765 -1.4734751 -1.3079594 4284561446
4.2716222 -1.4975343 -1.3059632 4283905057
4.3345623 -1.5495089 -1.3287781 4283709732
4.4168367 -1.6095259 -1.3578671 4283645984
4.4041824 -1.6355964 -1.3570116 4284763685
4.3940639 -1.6625892 -1.3570116 4285750564
4.3989849 -1.6953751 -1.3618597 4286669613
4.4527454 -1.7475309 -1.3823931 4282458880
4.4624119 -1.7829939 -1.3889525 4285351963
4.4602671 -1.8139499 -1.3918043 4285290031
4.4525962 -1.8427488 -1.3929451 4285695086
4.0237017 1.6100364 -1.3037884 4292925907
3.9961705 1.5706471 -1.2913407 4283842603
2.6290798 1.0148914 -0.83344144 4287069037
