# .PCD v0.7 - Point Cloud Data file format
VERSION 0.7
FIELDS x y z rgb
SIZE 4 4 4 4
TYPE F F F U
COUNT 1 1 1 1
WIDTH 1123
HEIGHT 1
VIEWPOINT 0 0 0 1 0 0 0
POINTS 1123
DATA ascii
36.861797 -7.7906137 2.808388 4287269765
36.691494 -7.9901247 2.7992115 4286940288
36.572681 -8.1996212 2.7939992 4286742909
36.420612 -8.4005642 2.7863643 4286875008
36.297543 -8.6070824 2.7810051 4286743422
36.096764 -8.7937622 2.7698464 4287202692
35.94054 -8.9896765 2.7621381 4287136899
35.808392 -9.1904507 2.7563386 4286611071
35.714676 -9.4003487 2.7535491 4286085240
35.516705 -9.5816517 2.7429042 4286547072
35.410141 -9.7863808 2.7393069 4285889401
35.239067 -9.9722433 2.7308645 4286480257
35.158062 -10.18273 2.7293963 4287728786
35.016506 -10.375035 2.7233765 4287664020
34.808434 -10.77977 2.7173567 4286087811
34.517235 -10.92215 2.7000315 4285824899
34.361313 -11.105219 2.6932042 4285759108
34.251801 -11.302409 2.6900473 4286022278
34.13644 -11.497084 2.6865237 4286482827
34.02092 -11.691092 2.6830733 4286087812
33.923138 -11.890715 2.6810911 4286219398
33.770653 -12.070446 2.6749244 4286745490
33.625675 -12.251827 2.6694186 4286548111
33.495636 -12.437787 2.6651607 4285692287
33.348728 -12.616613 2.6596546 4289572530
33.244633 -12.81096 2.6575992 4289638323
33.00943 -12.953504 2.6452658 4287139986
32.995083 -13.182071 2.6504781 4286285191
32.808258 -13.341453 2.6421092 4286153605
32.684311 -13.52535 2.6388056 4286153092
32.62001 -13.733768 2.6403472 4286020735
32.451698 -13.897937 2.6336668 4286284161
32.31461 -14.074495 2.6295557 4286283648
32.209404 -14.264433 2.6280875 4286087550
32.224941 -14.508469 2.6364565 4286152575
31.999283 -14.643679 2.6254447 4286152321
31.942287 -14.855308 2.628161 4286218114
31.821682 -15.037388 2.6258116 4285889149
31.626322 -15.183156 2.6174426 4286153092
31.601585 -15.410583 2.6230955 4286021767
31.510902 -15.60641 2.6234624 4286021254
31.425241 -15.804839 2.6243434 4285823875
31.333891 -16.00054 2.6248572 4285955461
31.212103 -16.180567 2.6229486 4286021506
31.077812 -16.353664 2.6200855 4285955712
30.986559 -16.549213 2.620893 4286087298
30.840593 -16.715275 2.6172223 4285956225
30.701618 -16.884489 2.6142125 4285627773
30.253428 -16.880619 2.5852146 4285759359
30.150146 -17.066423 2.585288 4285628287
30.323359 -17.410994 2.6089268 4285693566
30.184065 -17.578156 2.6062105 4285693311
30.09024 -17.771654 2.6074586 4285759106
18.414289 8.0343027 1.2604964 4285361776
18.521948 7.9463487 1.2643924 4290954181
18.64945 7.8659091 1.2696276 4290494402
18.791414 7.790318 1.2758367 4285953913
18.893398 7.6970873 1.2794282 4284637281
18.968998 7.5925121 1.2813153 4285558896
19.080254 7.5015411 1.2855766 4285890171
19.21904 7.4202757 1.2916641 4283653981
19.379942 7.3460774 1.2992125 4282600003
19.481718 7.2482567 1.3029258 4284243800
19.574581 7.1463814 1.3060913 4283585617
19.683842 7.0496964 1.3103526 4283387725
19.796417 6.9532623 1.3148572 4283652178
19.895334 6.851161 1.3185096 4286019699
20.045759 6.7656622 1.3255103 4281872681
20.377831 6.7387414 1.3441987 4283384631
20.497612 6.6391044 1.3492513 4283056945
20.595051 6.531311 1.3529036 4283189558
20.716719 6.4302645 1.3581388 4283058227
20.868484 6.3372502 1.3653219 4283189813
21.034237 6.2468762 1.3734183 4283190070
21.139271 6.1371741 1.3776796 4283190071
21.148684 5.9994512 1.3759141 4283124277
20.988867 5.8152084 1.3634958 4283386163
21.082928 5.7022095 1.3672092 4282792995
18.886183 4.9839501 1.2264676 4287069290
18.917374 4.8682222 1.2265284 4284306250
21.460241 5.3823748 1.3845582 4292794308
21.58013 5.2719131 1.3900371 4281741338
21.711121 5.1629529 1.3962462 4283780670
21.843527 5.0530329 1.4025772 4283583297
22.061098 4.9609509 1.4142649 4283123518
22.198389 4.8489223 1.4209611 4283124028
22.371262 4.7430539 1.4299097 4283058487
22.558331 4.6382604 1.4397712 4283124280
22.687191 4.5198436 1.4460413 4282861626
22.826229 4.4020977 1.452981 4283058233
22.981352 4.2859263 1.4609556 4282992440
23.156532 4.1717319 1.4702084 4283057976
23.381321 4.0642648 1.4825659 4283320376
23.509186 3.9380364 1.4889576 4283255101
23.668898 3.8156328 1.4973583 4283386171
23.793459 3.686069 1.5036285 4282992181
23.925219 3.5562937 1.5103855 4281279771
21.671795 3.0855846 1.3702528 4288647558
3.8166275 0.51984954 0.27013189 4280752925
3.7890604 0.49243662 0.26824474 4281808184
3.7890387 0.46881071 0.26806214 4285953906
3.4091878 0.40062851 0.24456465 4285428074
3.0683386 0.34153908 0.22350213 4285560688
2.7805107 0.29227632 0.20572683 4285495413
2.610409 0.25823566 0.19519557 4285100914
2.4757807 0.22960687 0.18685578 4286086269
2.3548267 0.20384325 0.17936824 4286086778
2.2336545 0.17957298 0.17188069 4285823347
2.1540852 0.15989362 0.16694988 4285757039
1.9996727 0.13612759 0.15745348 4285559660
1.951654 0.12084228 0.15447064 4287202943
1.9174775 0.10692673 0.15234004 4281478693
1.8792174 0.093238175 0.14996594 4282923829
1.8767624 0.081576332 0.14978331 4282265388
1.8383266 0.068615355 0.14740922 4292070093
1.802797 0.056221873 0.14521775 4294440951
1.6773806 0.042036936 0.13754758 4294901753
1.673615 0.031669315 0.13730407 4281610025
1.6657932 0.021299353 0.13681708 4281411619
1.6449319 0.010943276 0.13553873 4281476899
1.6359849 0.00084740866 0.13499084 4281739044
1.633963 -0.0091791386 0.1348691 4281935394
1.6468508 -0.019360328 0.13566047 4283578160
1.6476991 -0.029482942 0.13572134 4285352251
1.6883991 -0.040585198 0.13821718 4287126082
30.012199 -1.0965077 1.8668048 4290360227
30.17045 -1.287706 1.87691 4281411619
30.262672 -1.4777224 1.8830581 4294110432
28.325537 -1.5573798 1.7653272 4294570712
30.445499 -1.8614091 1.8954766 4293913041
30.480312 -2.0513349 1.8983376 4293716689
30.751856 -2.2592397 1.9157476 4291742385
31.099594 -2.4767349 1.937906 4292727223
31.36923 -2.692009 1.9553769 4291939243
31.778522 -2.9236712 1.981492 4293517000
32.001373 -3.1423111 1.9962845 4284173886
32.321011 -3.3740559 2.0171034 4287858555
31.112162 -3.4409559 1.944237 4294111460
31.92948 -3.9285462 1.9971976 4293121734
31.935463 -4.128355 1.9990847 4292396973
34.228973 -4.6385784 2.141835 4292462246
34.545761 -4.8975573 2.163141 4287200345
34.927784 -5.1705365 2.1885865 4292267687
35.216991 -5.4343801 2.2084315 4294306510
35.701939 -5.9586539 2.2427037 4293449175
34.672356 -6.0057063 2.1812816 4287135105
36.036785 -6.4700575 2.2681491 4286479998
36.315342 -6.75034 2.2879333 4286676346
36.575138 -7.0310793 2.3066826 4286480250
36.422638 -7.2337837 2.2999256 4286611582
36.368767 -7.4553289 2.2993777 4286808961
36.279366 -7.6692595 2.2966993 4286480509
36.064854 -7.8553934 2.2862897 4286349691
35.914684 -8.0538197 2.2799587 4286152312
35.774139 -8.2531691 2.2742975 4286085749
35.678146 -8.4619226 2.2714972 4285756527
35.570282 -8.6672115 2.2680273 4285690482
35.373123 -8.8494492 2.2590179 4285822329
35.236946 -9.0454798 2.2539046 4285624950
35.109352 -9.2427149 2.2493999 4284902254
34.97681 -9.437686 2.2446516 4284443499
34.828773 -9.627387 2.2389903 4284904050
34.745995 -9.8343878 2.2375293 4284837745
34.564198 -10.012405 2.2298591 4283652958
34.447563 -10.208134 2.2263894 4286415493
34.300217 -10.393835 2.2210324 4284707188
34.19289 -10.590811 2.218293 4285430139
34.091099 -10.78897 2.2159798 4286086271
33.953026 -10.974919 2.2114143 4285362030
33.798794 -11.154578 2.2058747 4285428339
33.690929 -11.348689 2.2033789 4286153091
33.569691 -11.53768 2.2000916 4286547849
22.028294 -7.722291 1.4588249 4286349700
21.991776 -7.8613405 1.4595554 4286021506
21.874664 -7.9711828 1.4551115 4287337366
21.837505 -8.1097708 1.4559031 4285954943
21.804138 -8.2499685 1.4569988 4293652464
21.198122 -8.4699163 1.4274137 4286811275
21.007988 -8.5437956 1.4183435 4285825667
32.048168 -13.494642 2.1559577 4285496704
31.935402 -13.678456 2.1540098 4285430139
31.850872 -13.87415 2.1540098 4286086528
31.826286 -14.096406 2.1580884 4287796885
31.651823 -14.252079 2.1522443 4286019958
31.526566 -14.428991 2.1497486 4286282617
31.403048 -14.606166 2.1474354 4286480511
31.321857 -14.802843 2.1480441 4285954683
31.225042 -14.99216 2.1476789 4285625980
31.118111 -15.17647 2.1467049 4285429632
31.10043 -15.404779 2.1518791 4285495675
31.002647 -15.593971 2.1516964 4285956477
30.903713 -15.782546 2.1515138 4284837483
30.776165 -15.956249 2.1494441 4284771187
30.643229 -16.126657 2.1470702 4285231736
30.534018 -16.309206 2.1464005 4285035381
30.34123 -16.446304 2.1400087 4286286469
30.211761 -16.616774 2.1380608 4285100403
30.143227 -16.820807 2.1404347 4285824127
30.062031 -17.018229 2.1420176 4286219397
29.948389 -17.197397 2.1414087 4285824126
29.832817 -17.375307 2.1407392 4285758846
29.689545 -17.536707 2.1381824 4285693311
18.118456 7.9091854 0.99884367 4294770406
18.291466 7.8514514 1.0054635 4294704613
18.250038 7.701396 1.000742 4294375659
18.272039 7.5789371 0.9994278 4285756526
18.393116 7.4972215 1.0033705 4285758844
18.496258 7.4072475 1.0063883 4284377193
18.59713 7.3155584 1.0093089 4284047715
18.722723 7.2326288 1.0135436 4283521371
18.861073 7.1533923 1.0184599 4285033583
18.969194 7.0615759 1.0218185 4282862412
19.104107 6.9786415 1.0265887 4283322963
19.220846 6.8879123 1.030434 4283191377
19.348495 6.7999873 1.0348635 4282994511
19.478622 6.7117305 1.039439 4282666063
19.610281 6.6227713 1.0441118 4282665546
19.710287 6.5220919 1.0471784 4283059275
19.860151 6.4367566 1.0528247 4283058754
20.006849 6.3489213 1.0583251 4282861375
20.12746 6.2515254 1.0625112 4282795580
20.275339 6.1613107 1.0681088 4282663994
20.381699 6.0572786 1.0716134 4282729017
20.54125 5.9677801 1.0778439 4282598460
20.687016 5.8727307 1.083393 4282203443
20.850672 5.7811871 1.0898668 4282663218
20.943598 5.6688018 1.0927873 4283385912
18.905613 4.992764 0.98832977 4294965994
18.926222 4.8741755 0.98784304 4285821533
21.464832 5.3878961 1.1139125 4284308043
21.555698 5.2703252 1.116833 4286215019
21.698402 5.1643324 1.1223819 4292990933
21.820175 5.0520535 1.1269088 4284832342
21.824453 4.9121494 1.1255945 4285950558
21.890287 4.7860398 1.1273955 4285885016
21.78343 4.6228051 1.1206297 4285556819
21.895521 4.5063777 1.1248157 4285294158
21.992304 4.385818 1.1282717 4285031245
22.110006 4.2684054 1.1327986 4285097041
22.319384 4.1669483 1.1419008 4285360213
22.486074 4.0554566 1.14891 4285491798
22.641413 3.9401906 1.1553839 4285886297
22.824739 3.8279626 1.1632694 4286412898
22.950346 3.7043982 1.1683316 4285623901
23.151291 3.5912285 1.1771418 4286413930
23.288479 3.4663177 1.1828369 4288253309
23.439833 3.3419733 1.189262 4291870635
3.855828 0.52464402 0.22505015 4283385148
23.882196 3.1065352 1.2090729 4284175418
23.919643 2.9622715 1.2099978 4282597171
3.8350725 0.45008028 0.2235899 4283124296
3.7403307 0.36927325 0.21857634 4292072401
2.5580325 0.23633619 0.16060388 4283055163
2.3544471 0.20287085 0.15057674 4284570970
2.1316385 0.17039093 0.13962476 4285295973
2.0459862 0.15086845 0.13539 4285362017
2.0169783 0.13627444 0.13392973 4285493346
1.8971512 0.11641912 0.12804 4287859584
1.8898518 0.10433084 0.1276506 4283119666
1.8944466 0.092931181 0.1278453 4282463276
1.8191431 0.078004517 0.12414597 4284240716
1.8086082 0.066430613 0.12361054 4286937202
1.7970017 0.054957751 0.12302643 4291020226
1.7104356 0.041750584 0.11879167 4294376700
1.6846952 0.030762596 0.11752611 4281016095
1.6708701 0.020245695 0.11684465 4281607717
1.6569796 0.0098996218 0.11616319 4281804065
1.641028 -0.00027631689 0.11538438 4281803554
1.6360015 -0.010317552 0.11514101 4282394151
1.6329112 -0.020320538 0.11499499 4284431414
1.6337545 -0.03035735 0.11504366 4286731075
1.6565036 -0.040932558 0.11616319 4286995526
29.154125 -1.0590597 1.457123 4293582009
29.316721 -1.2451245 1.4653978 4281412381
29.461168 -1.4324001 1.4728452 4294636776
28.347788 -1.5527171 1.4189614 4292200364
30.155203 -1.8372905 1.5076967 4293845181
29.883255 -2.0048447 1.4949925 4293452482
29.877363 -2.1886775 1.4953332 4294374354
30.033632 -2.3854773 1.5036567 4294374605
30.288126 -2.5927916 1.5168477 4285756241
30.640657 -2.8124437 1.5349064 4294966489
31.010504 -3.0383685 1.5538898 4294175951
31.179039 -3.2481413 1.5630895 4284307792
31.161499 -3.4397199 1.5632354 4294967293
32.059483 -3.7380562 1.6083575 4279767305
32.038914 -3.9350646 1.6085036 4294767586
32.043884 -4.1354117 1.6099639 4294570191
33.044331 -4.4707861 1.6604403 4293848002
33.064739 -4.6803164 1.6628255 4293124539
33.004768 -4.878583 1.6613165 4293451197
34.330582 -5.289959 1.7281965 4293777094
34.718594 -5.5680304 1.748981 4281800723
34.716286 -5.7863731 1.7505872 4294832862
34.763783 -6.0137482 1.7547246 4293059272
34.867802 -6.2523222 1.7617339 4283387452
35.412117 -6.5744286 1.7906471 4284043086
35.642818 -6.843751 1.8041302 4284374361
35.72752 -7.0875845 1.8104581 4284835171
35.660851 -7.302063 1.8093385 4285165165
35.545013 -7.5058808 1.8058338 4284902508
35.475838 -7.718956 1.8047143 4284901993
35.370308 -7.9236059 1.8018425 4285756788
35.443661 -8.168745 1.8079755 4286282617
23.752274 -5.628315 1.2249898 4284768604
23.595011 -5.7441883 1.2188567 4285361256
33.999607 -9.6151276 1.7573044 4281480243
34.068535 -9.8607712 1.763827 4287006603
33.802525 -10.234978 1.7565743 4280099368
21.631622 -6.6953921 1.1389316 4294639103
21.595846 -6.829803 1.1392237 4294769663
21.517416 -6.9505186 1.137374 4294769403
21.458237 -7.0770993 1.1365465 4294506744
21.373703 -7.194931 1.1344535 4292533465
21.134554 -7.2591138 1.1244264 4294901757
20.828499 -7.2971907 1.1109432 4294770680
20.823778 -7.439302 1.1130363 4294441715
20.819975 -7.5823126 1.1152266 4294573046
20.809578 -7.7234707 1.117125 4294441462
20.728163 -7.838294 1.1153727 4292862683
20.579012 -7.9265652 1.1101158 4282203704
20.505812 -8.0432043 1.1088502 4294967290
20.022881 -7.9959111 1.0861188 4294704374
20.411118 -8.2964926 1.1091423 4291479755
20.681028 -8.5544176 1.1260813 4283321685
20.9338 -8.8097649 1.1422416 4284442220
21.326532 -9.1294489 1.1659465 4283258461
31.605947 -13.75931 1.7152976 4285757815
31.509052 -13.947725 1.7146648 4285822832
31.285339 -14.07891 1.7073147 4285689704
31.110258 -14.23031 1.7025932 4285952623
30.92544 -14.375885 1.697385 4285690480
30.867355 -14.579871 1.6990399 4285559927
30.782719 -14.771587 1.699332 4285429369
30.801937 -15.014014 1.705319 4284837744
30.677008 -15.186777 1.7035668 4285823095
30.58057 -15.373377 1.7034208 4285097569
19.732573 -10.072515 1.1150806 4286411893
19.662415 -10.189266 1.1146426 4287464581
19.584497 -10.301817 1.1138151 4286085751
19.521799 -10.422261 1.1138638 4287534224
29.565981 -16.728973 1.6909112 4284969580
29.44805 -16.901619 1.6900836 4285233011
29.339474 -17.079477 1.6898403 4285430133
29.19972 -17.238871 1.6878933 4284246120
29.090822 -17.416174 1.6877472 4283786084
17.680979 7.7107 0.7395339 4292465846
17.781229 7.6249084 0.74164909 4294900965
17.873722 7.5350709 0.74347258 4289112219
17.997169 7.4573903 0.74653596 4284704349
18.371161 7.4806061 0.75948256 4283059524
18.480738 7.3933525 0.76199895 4285559660
18.628996 7.320385 0.76604706 4284507486
18.718313 7.2232103 0.76779759 4284507487
18.863211 7.1464562 0.77173626 4284572765
18.988197 7.0608802 0.77490908 4284243800
19.110022 6.973011 0.77797252 4284440666
19.23807 6.8862686 0.78129125 4284309078
19.337479 6.7882867 0.78351587 4284638035
19.402391 6.6776366 0.78442758 4285163348
19.343573 6.5249238 0.78059828 4285360729
19.229528 6.3553114 0.77469027 4284900689
19.320456 6.2541275 0.77669609 4285558106
19.43182 6.158709 0.77950424 4285294934
19.537964 6.0606775 0.78213 4285558106
19.68858 5.9752145 0.78646988 4285623385
19.822592 5.883296 0.79018974 4285820250
19.946617 5.7871723 0.79354489 4285689694
20.076935 5.6916552 0.79715538 4285360727
20.214533 5.596889 0.80105758 4285820251
20.371014 5.5058618 0.80568916 4284699713
18.904707 4.985312 0.74908882 4291345833
18.950426 4.8732023 0.74967235 4284307524
20.848896 5.2251916 0.81998515 4284636489
20.95726 5.1158876 0.8228662 4289636244
21.092287 5.0119181 0.82676846 4291083429
21.24435 4.9105339 0.83132708 4284372795
21.377438 4.8033094 0.83519286 4285820763
21.509024 4.6944222 0.8390221 4285425754
21.730997 4.6033587 0.84624302 4287596402
21.870426 4.492856 0.85040051 4287267689
21.968149 4.372622 0.85302633 4287201903
22.167274 4.2710185 0.85944492 4285227349
22.299168 4.1546884 0.86338359 4294702056
22.503244 4.0499983 0.87002099 4292465344
22.668467 3.9362915 0.87523609 4293188025
22.739506 3.805042 0.87698662 4292268467
22.803862 3.6721153 0.87851834 4294768609
22.841766 3.5345693 0.87910187 4291808443
3.965821 0.5891065 0.18191837 4286806888
3.920881 0.5578686 0.18013138 4287791471
21.726562 2.9536245 0.83577633 4294763460
23.222904 3.0120101 0.89018852 4292923566
23.280619 2.8743579 0.89164728 4294965212
3.7467937 0.43960366 0.17327514 4284373842
3.7434611 0.41594395 0.17305633 4284571740
3.2589362 0.34192792 0.15518638 4291284165
2.9683385 0.27469093 0.14439148 4284046684
2.9729552 0.25672993 0.14450088 4291545002
24.661623 1.9744613 0.93847388 4293716424
2.4646161 0.18245853 0.12579213 4282532408
2.2204144 0.1507256 0.11682069 4285888374
2.1584582 0.13323106 0.11452312 4293125083
1.9826237 0.11020216 0.10806806 4280885275
1.8355398 0.090761647 0.1026706 4282726190
1.8240813 0.078981057 0.10223297 4282529061
1.7935734 0.066643573 0.10110242 4281938474
1.7869565 0.055421814 0.10084713 4291280315
1.7313173 0.043076716 0.098804854 4282922550
1.7105665 0.03206417 0.098039001 4281737250
1.6757569 0.021134695 0.096762568 4281869607
1.6638633 0.010777154 0.096324943 4281673251
1.6589013 0.00056713307 0.09614259 4282000933
1.6448832 -0.0095273871 0.095632024 4282591530
1.64979 -0.019680792 0.09581437 4284168504
1.6556333 -0.029913059 0.096033186 4285613370
1.6823927 -0.040730502 0.097017854 4288309843
28.1453 -1.033192 1.0634177 4293978824
28.255247 -1.2108767 1.0676845 4284243277
28.198376 -1.3818274 1.0658976 4294768099
28.312098 -1.5615944 1.0703832 4293580469
29.148825 -1.787219 1.1013457 4293908662
29.50922 -1.9911385 1.1149487 4294699977
29.724674 -2.1889763 1.1233002 4294965463
29.994593 -2.3939857 1.1336939 4293649089
30.280024 -2.6038446 1.1447077 4293517507
30.396826 -2.8018837 1.1495945 4287333230
30.362154 -2.9866788 1.1489745 4294569957
30.382019 -3.1769753 1.1503968 4286609002
30.64106 -3.3942573 1.1606448 4294174432
31.020651 -3.6291211 1.1753783 4279502592
31.229889 -3.8479917 1.1839122 4294699998
31.879612 -4.1267891 1.2087113 4294963673
32.168594 -4.3650551 1.2203085 4290488972
32.330181 -4.5891833 1.2272742 4294373582
32.732414 -4.851356 1.2431748 4292729531
33.042763 -5.1047492 1.2557566 4291018149
33.080872 -5.3186636 1.258346 4292859842
34.167332 -5.7086387 1.2997751 4294110418
34.341389 -5.9545455 1.307543 4292531639
34.264862 -6.1580772 1.3060843 4291545004
22.747002 -4.8125901 0.88409817 4283059024
22.690681 -4.9463248 0.8831135 4282334538
24.195648 -5.4301462 0.94055265 4282796370
23.63899 -5.4577737 0.92096859 4284508267
23.536995 -5.5865612 0.91841578 4289969598
23.525574 -5.7365584 0.91929102 4283915098
24.81415 -6.2123461 0.9691081 4280952105
24.792017 -6.3687134 0.96972805 4280493096
24.734114 -6.5158772 0.96903515 4283653470
20.954947 -6.0739417 0.83180118 4283126362
20.960396 -6.2151899 0.83344233 4286746520
20.893177 -6.3349838 0.83234823 4284245618
20.804277 -6.4476781 0.83045185 4283521120
20.685249 -6.550169 0.82742488 4286479996
20.633257 -6.6732769 0.82698727 4294111974
20.616594 -6.8079023 0.82793546 4294243043
20.552654 -6.9269338 0.82709664 4292072644
20.444559 -7.0304875 0.82458025 4290427568
20.264299 -7.1078377 0.81929225 4294440690
19.964365 -7.1404977 0.8093726 4294769655
19.795307 -7.2173324 0.80452216 4294506482
19.731915 -7.3316965 0.80379277 4294441194
19.647305 -7.4377708 0.80226105 4291875768
19.674025 -7.5862298 0.80510569 4282993713
19.666174 -7.7221456 0.80663741 4294638831
19.792871 -7.9124122 0.81349361 4294178541
19.757835 -8.0393591 0.81404066 4294704375
20.359989 -8.4303627 0.83978796 4294768887
20.694672 -8.7180853 0.85510504 4290294955
31.080202 -13.544889 1.2728608 4279174152
30.927986 -13.704974 1.2701256 4280028952
30.780441 -13.866163 1.2676092 4280754729
30.622999 -14.0219 1.2647281 4280886312
30.56085 -14.220918 1.2657127 4280887082
30.455851 -14.400053 1.2650199 4282269248
30.270535 -14.540356 1.2611177 4283255377
19.121841 -9.4754896 0.81440532 4290033333
19.02317 -9.5724258 0.81276423 4287138690
19.746305 -10.088637 0.84482074 4289375654
19.645885 -10.189822 0.84325254 4286344801
19.562653 -10.299468 0.84241378 4287974737
19.508785 -10.424489 0.84281492 4289094506
21.014296 -11.395298 0.90798557 4289168261
20.468561 -11.262425 0.8881827 4293644505
20.149517 -11.248487 0.87775248 4287659921
28.807583 -16.784904 1.2523285 4286414454
28.697168 -16.957279 1.2520368 4284045906
28.584864 -17.12842 1.2517086 4282992710
17.365414 7.5768037 0.49552846 4293451451
17.477722 7.4984922 0.49727502 4293583296
17.58972 7.4190869 0.49902156 4292531378
17.726336 7.348927 0.50142312 4290426004
17.82942 7.2637887 0.50295132 4284109371
17.940477 7.181004 0.50469786 4284504652
18.072584 7.1055441 0.50700235 4285032026
18.185787 7.0215297 0.50882167 4285164389
18.292093 6.9339108 0.51047122 4284572252
18.420494 6.8536186 0.51270294 4285295712
18.552347 6.7733831 0.51503164 4283980616
18.657558 6.6823463 0.51668119 4282006824
18.771778 6.593586 0.51857328 4282598963
18.92058 6.5157199 0.5213629 4282270006
19.04261 6.4273219 0.52347332 4282335542
19.184193 6.3442636 0.52609313 4286741866
19.290285 6.2483082 0.52781546 4292595898
19.408306 6.1552176 0.52985311 4294899936
19.551683 6.0689173 0.53254569 4294769381
19.69569 5.9813786 0.53526258 4294899938
19.829767 5.8894529 0.53773683 4293911499
19.934654 5.7877421 0.53948343 4291937962
20.120785 5.7081614 0.54329187 4291675553
20.251768 5.6112938 0.54571766 4293911758
20.328278 5.4984131 0.546785 4281937183
18.934937 4.9969778 0.51098061 4294964972
18.951687 4.8772116 0.51064098 4294702555
20.239868 5.0765967 0.54212749 4292662198
20.327934 4.9663134 0.54355872 4292463528
20.438747 4.860692 0.5455721 4293054632
20.550001 4.7541227 0.54760975 4294371525
20.712406 4.6579981 0.55093306 4285031764
20.84803 4.5542965 0.55360138 4283256133
21.021296 4.4571943 0.55721581 4292728258
21.216673 4.3627682 0.56138813 4293909691
21.319515 4.2477446 0.56328022 4293778105
21.495365 4.1458249 0.56699163 4286936154
21.627516 4.0338392 0.56963575 4290358161
21.755167 3.9196773 0.57218277 4294701268
21.968897 3.8191729 0.57686454 4293844920
22.11319 3.7046256 0.57984823 4293845955
22.274666 3.591316 0.58326852 4291873196
22.382233 3.467895 0.58537894 4291873460
3.9327145 0.58367234 0.13226944 4294767847
22.738819 3.2379436 0.59311718 4286607449
21.771662 2.9639904 0.56895649 4294965204
21.818188 2.8340826 0.56966001 4294898126
23.348183 2.8873377 0.60665298 4294965721
23.411131 2.7493877 0.60776883 4279504131
3.8044841 0.42216194 0.12867931 4293253094
3.6966426 0.38721508 0.1259867 4284372061
3.1468043 0.30993733 0.11252367 4294966517
3.0481076 0.28130573 0.11007365 4283980365
23.79143 1.9095144 0.61494911 4294900439
2.2581842 0.16624394 0.090740263 4281940522
2.3279827 0.15706265 0.092414051 4283453258
2.1492982 0.13167438 0.088047661 4288914331
1.8476229 0.10165264 0.080697581 4290165420
1.8072739 0.088287555 0.079703018 4287862411
1.7658335 0.075378239 0.078684196 4284373585
1.786243 0.065285206 0.079169348 4286544760
1.7816139 0.054168608 0.079048052 4285229420
1.7149532 0.041567199 0.07742279 4294768383
1.6741952 0.030274011 0.076428227 4281081888
1.654357 0.019748 0.075943068 4281541411
1.6454498 0.0095381401 0.075724751 4281804067
1.6504759 -0.00055647519 0.075846039 4282066726
1.6424439 -0.010637488 0.075651973 4282526250
1.641348 -0.020703236 0.075627722 4284760379
1.6451882 -0.030846093 0.075724751 4286138426
1.6919404 -0.042075876 0.076864868 4287519825
27.293743 -0.99632108 0.69851685 4282136872
27.412966 -1.1691356 0.70157331 4293649376
27.698841 -1.3516291 0.70870513 4289503897
27.949556 -1.5358108 0.71501207 4292595374
28.316793 -1.7303097 0.72418153 4292988328
28.54603 -1.9201858 0.73002762 4292199325
28.752062 -2.1113296 0.73534006 4292726696
28.981724 -2.307056 0.74125892 4293910972
29.208063 -2.5055084 0.74712932 4293253301
29.601297 -2.7222903 0.75709921 4294767321
30.08548 -2.9530692 0.76932508 4293385933
30.252731 -3.1570108 0.77386129 4294636503
30.517969 -3.3740973 0.78082323 4291543454
30.442078 -3.5549133 0.77948904 4290818191
30.481211 -3.7491999 0.78099304 4289501561
30.630148 -3.9584465 0.78521389 4288252264
31.244423 -4.4282756 0.80151504 4284043830
22.195728 -3.4244959 0.58074576 4287858301
22.177258 -3.5610974 0.58081853 4287923586
22.225004 -3.7087865 0.58254081 4287463797
22.573193 -3.9093828 0.59168595 4280952349
22.61274 -4.0592937 0.59326273 4285492842
21.535719 -4.0025616 0.567307 4293848816
21.5245 -4.1372681 0.56764656 4287139206
21.529106 -4.2752967 0.56839859 4291217345
23.636484 -4.8446031 0.62125611 4284831574
22.84926 -4.829566 0.60248065 4291280318
22.744957 -4.9535117 0.60063708 4294372850
22.765837 -5.104569 0.60192269 4286808711
22.951321 -5.2942595 0.60733217 4286415493
20.598614 -5.82967 0.55525088 4285298042
20.398251 -5.9083996 0.55110282 4285693831
20.388454 -6.0414009 0.55178207 4285431687
20.367266 -6.1713157 0.55219442 4285497993
20.287951 -6.2834549 0.55115134 4289247934
20.222328 -6.3993769 0.55047214 4287206550
20.148434 -6.5122724 0.54959887 4285692024
20.057781 -6.6191769 0.5483132 4285033579
19.956154 -6.7217045 0.54676074 4284704096
19.877663 -6.831357 0.54581469 4285757563
19.792915 -6.9383154 0.54472309 4285033843
19.693489 -7.0394459 0.54326761 4284573290
19.604837 -7.143724 0.54210323 4293914868
19.411621 -7.2085557 0.53824627 4293321959
19.243599 -7.2808371 0.53504425 4294966268
19.207891 -7.4023714 0.53528678 4294769403
19.350096 -7.5938516 0.54018688 4280163870
19.526875 -7.8018169 0.54603297 4294440949
19.665703 -7.9975486 0.55093306 4294638078
20.277666 -8.3917398 0.56830156 4292139752
26.344109 -11.474304 0.73303556 4290438646
17.711216 -8.6374865 0.51394004 4294507255
17.658781 -8.7464409 0.5139643 4294573816
19.119528 -9.6163836 0.55510539 4292269521
18.9827 -9.6939659 0.55299497 4292531666
18.956591 -9.8277407 0.55391675 4292792274
19.133034 -10.068629 0.56041777 4294701041
19.515339 -10.423187 0.5726437 4291277235
20.395864 -11.054792 0.59872073 4289168261
20.317139 -11.17395 0.59842962 4294172379
18.537951 -10.344208 0.5509088 4294702316
18.491531 -10.467608 0.55139393 4290029999
17.132385 7.4714704 0.25782833 4292003237
17.239479 7.3926105 0.25862348 4293385404
17.334272 7.3076658 0.25926435 4292135339
17.441601 7.2271948 0.26007137 4291214237
17.556929 7.1490746 0.2609852 4291478700
17.675665 7.0712957 0.2619465 4290557598
17.899267 7.0336499 0.26424891 4289702538
18.169714 7.0115232 0.26714468 4291149725
18.254473 6.9158449 0.26767874 4291412127
18.305 6.8068428 0.26778555 4291215002
18.31636 6.6834302 0.26740575 4292859826
18.228989 6.5250897 0.26579171 4282859041
18.245094 6.4048362 0.265495 4282792745
18.351181 6.3158684 0.26633763 4293714381
18.463493 6.2280765 0.26726335 4292333231
18.605799 6.1491833 0.26856881 4292135842
18.726896 6.0620027 0.26961321 4292135844
18.837137 5.970243 0.27052703 4292200867
18.946953 5.877358 0.27144086 4293185969
19.115658 5.8013525 0.27309051 4293581496
19.222792 5.7052884 0.27398062 4292726957
19.347708 5.6134214 0.27509621 4293318835
19.485685 5.5240531 0.27637795 4294765252
19.614618 5.4307995 0.27755287 4292596150
19.711279 5.3275633 0.27833617 4283581749
18.947857 4.9966903 0.26856881 4292793547
18.957823 4.8751044 0.26831961 4290820508
20.207558 5.0644708 0.2832495 4292463275
20.323736 4.9612498 0.28429389 4293517243
20.458862 4.8614163 0.28557563 4294502848
20.604242 4.7625871 0.2869879 4294504388
20.709175 4.6531701 0.28791359 4292464807
20.872154 4.5554352 0.28955138 4293187508
21.051336 4.4593964 0.29139093 4293252282
21.167435 4.3484526 0.2924709 4292067490
21.301596 4.2399602 0.29377636 4293120946
21.298737 4.1036906 0.29343221 4286344788
21.255688 3.9602904 0.2926133 4287399534
21.22546 3.8200529 0.29196057 4292464564
21.294804 3.6977837 0.29251838 4291740063
21.398949 3.5807474 0.2935034 4294965728
21.568598 3.4732218 0.29528362 4286937443
4.1048012 0.63550371 0.085291922 4293321163
21.897423 3.2510073 0.29873717 4288712833
21.944675 3.1205273 0.29906949 4284501308
21.851448 2.9705999 0.29772839 4294962636
22.131054 2.8704152 0.30086154 4293976506
22.614676 2.7921476 0.30643949 4294570709
22.651247 2.6556625 0.30667683 4279769361
3.7973588 0.42192703 0.081339888 4285887859
3.6984389 0.38798824 0.080129355 4294573566
3.0168931 0.27917784 0.071952328 4282335301
2.9468207 0.25447649 0.071097836 4288649352
23.854977 1.9098923 0.32002831 4293715385
23.902145 1.766137 0.32045555 4282793763
2.3204935 0.15750168 0.063597292 4286282092
2.3523555 0.14516462 0.063965194 4288321163
1.8220537 0.10130836 0.057651442 4287466631
1.8156497 0.089782342 0.057568364 4288716958
1.7991836 0.077908285 0.05736661 4286677639
1.7816414 0.066202782 0.057152987 4285494140
1.7520304 0.05434614 0.056796946 4292926170
1.7183436 0.042756815 0.056393437 4280949009
1.6985784 0.031842161 0.056156076 4280093187
1.689743 0.021307861 0.056049265 4282066728
1.6838425 0.010901927 0.05597806 4282000933
1.6728785 0.00056865776 0.055847511 4282198055
1.6648513 -0.0096477317 0.055752568 4282461227
1.6667603 -0.019887209 0.055776305 4283314222
1.6686066 -0.030150475 0.055800039 4286468930
1.6793861 -0.040657021 0.055930585 4287456338
1.6631135 -0.05047176 0.055740699 4293052338
27.253721 -1.0004506 0.35967916 4290818711
27.398918 -1.1741669 0.3614831 4289897346
27.333269 -1.339422 0.36079475 4291081362
27.428373 -1.5128392 0.36202902 4288712815
27.428555 -1.6817201 0.36214769 4288447596
27.598293 -1.8621738 0.36429578 4288448623
26.732101 -2.1335516 0.35427922 4286015319
26.724483 -2.2980506 0.35435045 4282464046
26.697933 -2.4608841 0.35420802 4283450687
22.316748 -2.3335061 0.30230942 4288714915
22.311949 -2.4714961 0.30242813 4288716719
22.362907 -2.6161387 0.30322328 4290099904
26.401474 -3.2529984 0.35171574 4291941330
21.145403 -3.5328002 0.29044148 4293186772
21.093771 -3.6573541 0.29008543 4290886071
21.060106 -3.7847683 0.2899549 4283848276
21.557508 -4.0108666 0.29624492 4278715397
21.569801 -4.1502457 0.29669589 4284431943
22.609015 -4.4942546 0.3095845 4284362300
22.60648 -4.6381216 0.30989307 4284961628
20.91427 -4.6936646 0.29039401 4284900453
20.982508 -4.8443999 0.2915808 4281480243
21.007843 -4.986218 0.29225728 4283388754
21.227489 -5.1761465 0.2953192 4282337347
21.509605 -5.3849845 0.29916441 4293256679
20.272312 -5.6073232 0.28563493 4284375911
20.286592 -5.7455039 0.28624022 4285429628
20.26152 -5.8729339 0.28637075 4285824386
20.108147 -5.9624629 0.28492287 4283850850
19.901812 -6.0343742 0.28282225 4285364089
19.797552 -6.135654 0.28199148 4283850336
19.72426 -6.2458444 0.28155237 4283916381
19.657976 -6.3578281 0.28120822 4283851099
19.579666 -6.4654722 0.2807216 4284376162
19.507408 -6.5746303 0.28031811 4284047199
19.391054 -6.6681867 0.27936867 4283455832
19.338449 -6.7830706 0.27922624 4285034610
19.303997 -6.9042954 0.27932119 4283850083
19.070568 -6.9530783 0.276912 4286809994
18.831646 -6.9971695 0.27443159 4289374381
18.808931 -7.1203752 0.27469271 4294374647
18.936554 -7.3018484 0.27687639 4293716717
19.135248 -7.51366 0.27998579 4294704634
19.754505 -7.8970733 0.28849512 4292467670
23.112074 -9.7365179 0.3336527 4293458687
18.925705 -8.3862963 0.28168291 4290294952
18.890301 -8.5096569 0.28189653 4293781465
18.770456 -8.5945988 0.28101832 4294635758
19.081812 -8.8792028 0.28578925 4280821291
19.161661 -9.0598059 0.28755757 4285953915
17.726671 -8.5147724 0.26939958 4292335577
17.683977 -8.6282043 0.26953012 4294177777
17.634287 -8.7383251 0.26957762 4291545546
18.379761 -9.2486496 0.28019941 4292400857
18.300406 -9.3498774 0.27990273 4292861921
18.218725 -9.4495592 0.27958229 4294572537
18.125895 -9.5430021 0.27911943 4293846235
18.209869 -9.7303858 0.28104204 4293184189
17.487053 -9.4825268 0.27209359 4294767067
17.4776 -9.616642 0.27275822 4294966760
17.830727 -10.097969 0.27920252 4289576397
16.846443 7.3573265 0.02335728 4293121464
16.944563 7.27671 0.023316789 4291609508
17.070881 7.2072248 0.023254655 4291477922
17.181284 7.1299458 0.02320439 4290951065
17.293228 7.0523362 0.023152728 4290820243
17.381659 6.9643221 0.02311852 4291938465
17.485476 6.8817134 0.023072444 4291872419
17.620647 6.8103518 0.02300263 4291346334
17.737831 6.7308474 0.022946082 4292005293
17.8547 6.6501603 0.022889532 4291216292
17.961853 6.564857 0.022839965 4292137909
18.092161 6.4869285 0.022772945 4292202682
18.208981 6.4030013 0.022715699 4290492067
18.323553 6.3172317 0.022659848 4291281582
18.464285 6.2392612 0.022584449 4290361246
18.58481 6.1531992 0.022523712 4292531640
18.716385 6.0695944 0.022454597 4291082651
18.82571 5.9776425 0.022401538 4286410327
18.904051 5.8750787 0.022370821 4289699468
18.8412 5.7290053 0.022442728 4291804067
18.767689 5.5810733 0.022521617 4292856493
18.873596 5.4867525 0.022469256 4293647289
19.091597 5.4233193 0.022335216 4294437566
19.16017 5.3159676 0.022309385 4292725918
19.148026 5.1862741 0.022341499 4284242246
19.098276 5.0472193 0.022400143 4290422164
18.99235 4.894743 0.022498578 4293775285
19.231516 4.8307505 0.022347782 4294368956
19.640585 4.8056068 0.022074813 4293514672
19.745577 4.7030811 0.022020359 4293383599
19.913372 4.6141233 0.021920525 4293187508
20.065203 4.5197649 0.021831863 4290950034
20.21369 4.4230752 0.021745294 4293779646
20.348047 4.3218226 0.021668501 4293055663
20.51326 4.2255454 0.021569366 4293252265
20.643732 4.1205487 0.021494664 4292463778
20.794298 4.018095 0.021405306 4284373818
20.921776 3.9097216 0.021332001 4293585367
20.977844 3.7871387 0.021308962 4293912287
20.841093 3.6305392 0.02142206 4290424470
4.1687722 0.69892383 0.033240031 4289701000
21.512915 3.4761586 0.02097735 4290094737
21.782852 3.382777 0.020801421 4283120946
21.872433 3.2593768 0.020752553 4294964209
21.928646 3.1303396 0.020726722 4281211160
21.883039 2.9869351 0.020772099 4288907383
21.902939 2.8528655 0.020770703 4286210648
21.939878 2.7208803 0.02075674 4290160548
21.972052 2.5880809 0.02074557 4282662464
3.8481853 0.42837912 0.033487868 4286347133
3.8626752 0.40601707 0.033479493 4289702064
3.7546363 0.37134907 0.033556983 4290097827
3.0040944 0.27827898 0.034084771 4282661183
2.8991466 0.25058389 0.03415947 4293386194
23.15584 1.8665999 0.019972738 4292005046
23.163866 1.7242603 0.019974833 4281805846
2.3425748 0.15887047 0.034551822 4285427551
2.3415098 0.14436963 0.034553219 4287005303
1.8171743 0.10058889 0.034920435 4293519837
1.8167586 0.089387231 0.034921132 4288322705
1.8082813 0.077845216 0.034927417 4287138431
1.8097245 0.066785872 0.03492672 4287991430
1.7531282 0.053890869 0.034966514 4281148698
1.7234354 0.042375036 0.034987457 4282595883
1.6906691 0.03116826 0.035010494 4280751628
1.6818293 0.020677 0.035016779 4281803808
1.6679249 0.010261119 0.03502655 4281935651
1.6639563 2.3852685e-05 0.035029344 4282132521
1.6609253 -0.010169744 0.035031438 4282524967
1.6608315 -0.0203608 0.035031438 4283971125
1.6646748 -0.030621832 0.035028648 4285679163
1.6824504 -0.041264296 0.035016079 4287720280
20.904284 -0.75605524 0.021587517 4286148705
20.836308 -0.88164747 0.0216315 4293714130
20.779564 -1.0070143 0.021667104 4287200623
20.74304 -1.132862 0.021688048 4286608488
20.697767 -1.2578148 0.021714577 4287924862
20.747532 -1.3886602 0.021674085 4287268210
21.288343 -2.0824242 0.021258 4287927696
21.522829 -2.2387559 0.021084163 4294243320
21.984806 -2.423229 0.020749759 4293257206
22.355917 -2.6030493 0.020478185 4286289074
23.343008 -2.8632085 0.019772375 4285371055
23.299213 -3.0030622 0.019790526 4278191114
23.25062 -3.1419511 0.01981147 4279441436
23.221991 -3.2832952 0.019817753 4280493096
23.181622 -3.4228005 0.019831715 4279242255
23.149313 -3.563303 0.019839395 4279438089
23.063818 -3.6951563 0.019884076 4289108634
22.184492 -3.6940756 0.020490054 4293189593
22.018387 -3.9447031 0.020574529 4279833624
21.799086 -4.0436292 0.020712759 4280293144
21.681547 -4.1596041 0.020778382 4281737755
21.68014 -4.297421 0.020760929 4285749845
21.608295 -4.4211483 0.020793043 4281608996
21.562172 -4.5497293 0.020806309 4280230172
20.998243 -4.7006392 0.021168638 4279834396
21.692163 -5.1362624 0.020628285 4279967782
22.571667 -5.4909382 0.019973436 4279902505
22.529791 -5.6273942 0.019979022 4279638053
22.447371 -5.753365 0.02001323 4291939806
19.964987 -5.3791885 0.021755766 4294835455
19.947027 -5.5058465 0.021744598 4292995047
19.935003 -5.6343904 0.02172854 4292338146
19.844337 -5.7404881 0.021769032 4291154130
19.710932 -5.8332038 0.021840241 4285628036
19.624041 -5.9386888 0.02187724 4286812562
19.40667 -6.0031457 0.022009188 4291482578
19.288422 -6.0964975 0.02206853 4292137685
19.241135 -6.2116628 0.022075512 4291349969
19.104834 -6.2973685 0.022147419 4291219665
19.023182 -6.4001284 0.022178834 4291350738
18.948559 -6.5047202 0.022204665 4292206561
18.860153 -6.6040125 0.02224027 4290299852
18.781605 -6.7061634 0.022268195 4288194474
18.734465 -6.8192272 0.022272384 4293456627
18.686644 -6.9319654 0.022276573 4294505206
18.6765 -7.0588655 0.022252139 4289833903
18.99214 -7.3116302 0.021983359 4293981162
21.430962 -8.5537891 0.020081647 4286550429
21.315998 -8.6599112 0.020128421 4287669674
21.221798 -8.7737322 0.02015914 4289243817
21.115942 -8.8820715 0.020198235 4292921031
18.221949 -7.7968655 0.022354066 4294963169
18.091236 -7.8726196 0.022416897 4293781964
18.075512 -7.9980426 0.022391764 4294835950
18.061666 -8.1247988 0.022364538 4293914096
18.129704 -8.2895203 0.022273781 4292664281
18.244461 -8.4777126 0.022146022 4286611584
18.145077 -8.5672998 0.022182325 4282862412
18.093067 -8.6789064 0.022181626 4284507748
17.833607 -8.6894665 0.022341499 4288849573
17.882128 -8.8492832 0.022261912 4294507257
17.883787 -8.9871254 0.022217929 4294440692
17.799803 -9.0821466 0.02224027 4294965494
17.733086 -9.1856737 0.022248648 4287064938
17.633902 -9.2719727 0.022282157 4291533719
17.051735 -9.0998955 0.022697546 4294761428
16.990301 -9.2014942 0.022701737 4294636010
16.939657 -9.3089418 0.022696849 4288979871
17.051666 -9.5071697 0.02256141 4294115070
19.447657 -10.999823 0.020592678 4293325049
19.327753 -11.089088 0.020634567 4292404718
19.259348 -11.207473 0.020634567 4293852148
19.185049 -11.322386 0.020638756 4294311157
16.843447 7.3454714 -0.20095624 4292333498
16.797222 7.2029719 -0.19967765 4292463026
16.821753 7.0916142 -0.19940643 4291738271
16.912062 7.0077839 -0.20006511 4292134308
17.017715 6.929523 -0.20094334 4291739039
17.143469 6.8583984 -0.20210569 4292396971
17.225246 6.7688036 -0.20266104 4292725166
17.33362 6.6889014 -0.20359091 4292198824
17.442598 6.6082783 -0.20453373 4291804318
17.456575 6.4913702 -0.2041721 4292002465
17.488562 6.3813939 -0.20406878 4291673499
17.526445 6.2736292 -0.20405586 4291409558
17.626881 6.187829 -0.20490827 4291344281
17.740156 6.105587 -0.20594147 4290161296
17.863506 6.0257025 -0.20711674 4291016860
17.988438 5.9451604 -0.20831785 4291148959
18.122564 5.8663898 -0.20964809 4291741613
18.239239 5.7807589 -0.21074587 4286082910
18.39661 5.7066531 -0.21239901 4286806894
18.493475 5.6125402 -0.21323848 4291609257
18.610003 5.5234265 -0.21434918 4293187509
18.747257 5.4392228 -0.21574402 4291740312
18.874556 5.3508143 -0.21700969 4293846462
18.989906 5.2578459 -0.2181204 4294831571
19.079727 5.1568799 -0.21889529 4292070578
19.137117 5.0465951 -0.219244 4286738522
19.074755 4.9051723 -0.21800414 4292722597
19.142321 4.7975187 -0.21850783 4293776825
19.697893 4.8084869 -0.2255078 4292001694
19.804853 4.7060242 -0.22654101 4292134308
19.920063 4.6044555 -0.22769046 4292791980
20.024036 4.4992385 -0.22869784 4293449392
20.07276 4.3809786 -0.22898197 4292990122
20.056221 4.2486153 -0.2284137 4292068768
20.07016 4.1230583 -0.22825873 4292068255
20.075468 3.995929 -0.22800043 4292463275
20.132992 3.8791044 -0.22843954 4291607976
20.264544 3.7756422 -0.22986019 4292595649
20.35523 3.66345 -0.23075134 4287265913
4.3150048 0.74960124 -0.020183906 4288845436
20.809906 3.4821918 -0.23613691 4291738020
20.892084 3.3642941 -0.23693764 4283317809
21.02202 3.2530105 -0.23837122 4281477923
21.182035 3.14481 -0.24020517 4289965218
21.432583 3.0477166 -0.2432273 4281608216
21.465742 2.9181716 -0.24342102 4290357911
20.275457 2.629776 -0.22769046 4289042575
20.157242 2.48878 -0.22594693 4284899939
20.306204 2.3807669 -0.22769046 4292598747
3.8450127 0.42721704 -0.013584301 4283783247
3.8386114 0.40267843 -0.013468064 4283451443
3.8589218 0.38088369 -0.013700534 4292003235
2.906934 0.25103724 -0.0013020597 4290163367
19.875145 1.468646 -0.22102627 4283253823
2.341414 0.15891814 0.0060724486 4282860846
2.3353589 0.14411855 0.0061628539 4285295195
1.9098881 0.10617343 0.011677591 4294836210
1.8296084 0.090469606 0.012723714 4286876286
1.7901695 0.077519894 0.013240317 4287929235
1.8515648 0.068785854 0.012452496 4283716951
1.8199698 0.056438573 0.01286578 4280557339
1.7513087 0.043569662 0.01375692 4286477419
1.6965572 0.031804729 0.014467249 4280556046
1.6817226 0.021208558 0.014660975 4281739552
1.6618232 0.010764413 0.014919277 4281804835
1.660858 0.00056734652 0.014932191 4281935655
1.66283 -0.00963555 0.014906362 4282657323
1.6577405 -0.019777495 0.014970938 4283708723
1.6595873 -0.029985419 0.014945107 4285549119
1.6633706 -0.040265612 0.014893446 4286929739
1.5831363 -0.04802604 0.015926652 4292657833
19.877489 -0.97395831 -0.22066465 4294965745
20.30644 -1.1199216 -0.22629562 4294899695
20.518759 -1.257964 -0.22913694 4284637008
20.680252 -1.395287 -0.23133251 4278452480
20.891685 -1.5383848 -0.23418674 4280361251
21.09416 -1.6834927 -0.23693764 4284506208
21.317551 -1.8330275 -0.23997268 4284571237
21.500063 -1.9816946 -0.24249113 4281677119
21.711399 -2.1356068 -0.24539703 4282271055
21.909712 -2.2909381 -0.24814793 4285233029
22.141714 -2.4526365 -0.25135088 4282733154
22.475834 -2.6293519 -0.25589699 4286746528
22.453323 -2.7664778 -0.2558195 4280036671
22.412127 -2.9011154 -0.25550953 4278785323
22.325535 -3.0293012 -0.25461841 4279178289
22.21644 -3.1534419 -0.25344312 4281221725
22.126444 -3.2792909 -0.25252616 4280627527
22.041674 -3.4050703 -0.25168666 4280363318
21.948298 -3.5286639 -0.25074387 4280032032
21.936096 -3.6649172 -0.25087303 4281412910
21.86886 -3.7917578 -0.25029185 4280754980
21.861914 -3.9288783 -0.25051141 4280754980
21.854105 -4.0660558 -0.25073096 4280228123
21.74234 -4.1834469 -0.24959442 4280885022
21.824139 -4.3382225 -0.2510151 4281279780
21.276991 -4.3653307 -0.2441572 4280885031
21.185238 -4.4821401 -0.24330479 4279768350
21.078203 -4.5947943 -0.24225867 4279046947
20.99888 -4.7126541 -0.24158707 4279047466
20.927675 -4.8317389 -0.24103174 4279113777
20.832451 -4.9445853 -0.24016643 4281680482
20.750233 -5.059763 -0.23948193 4279903822
20.670296 -5.1748457 -0.23883617 4281548917
20.564552 -5.28267 -0.23785463 4280497497
20.466 -5.3914299 -0.23697639 4279575342
20.385233 -5.5041323 -0.23634356 4280558115
20.350111 -5.6288443 -0.23633063 4280624932
20.325773 -5.7566013 -0.2364727 4279177486
20.21324 -5.8589382 -0.23543951 4279768851
19.964087 -5.919744 -0.23257235 4280031508
19.868061 -6.0241404 -0.23177162 4279636238
19.815517 -6.2747436 -0.23208159 4288783784
19.51977 -6.3131266 -0.22859451 4289044898
19.511049 -6.4428124 -0.22900778 4287464070
19.465464 -6.560492 -0.22893029 4284635735
19.325558 -6.6456628 -0.22757423 4281808433
19.22403 -6.7429347 -0.22674766 4280032795
19.874462 -7.2461939 -0.23684725 4278849289
19.778074 -7.3488483 -0.23613691 4283585615
19.660604 -7.4428058 -0.23514247 4278586380
19.582846 -7.5510693 -0.23470333 4287799208
19.457962 -7.6403852 -0.23361847 4289379267
19.375435 -7.7455277 -0.23312771 4292073681
19.264565 -7.8386393 -0.23224947 4294768358
19.147741 -7.9283881 -0.23129377 4281146653
19.018562 -8.0119534 -0.23017016 4283512383
18.446985 -8.3099413 -0.22493955 4284179302
18.459288 -8.4521141 -0.22584361 4284442207
18.374441 -8.5500317 -0.22537866 4288257690
18.263781 -8.6352596 -0.22455209 4286218105
17.580427 -8.4445229 -0.21552446 4280231455
17.644209 -8.6087999 -0.2171905 4279377177
17.908215 -8.8740721 -0.22176245 4285233011
17.918631 -9.0166006 -0.22270525 4284442725
17.892355 -9.1413898 -0.22313145 4286940549
17.814625 -9.239953 -0.22282147 4279241228
17.743439 -9.3416348 -0.22261482 4279635218
17.706951 -9.4616404 -0.2229248 4279374615
18.1677 -9.9963722 -0.23144874 4287081922
18.077209 -10.091574 -0.23102254 4287938514
18.012339 -10.200826 -0.23098379 4288725723
17.977152 -10.327093 -0.23139709 4283196291
17.90308 -10.431164 -0.23124209 4282405231
17.830132 -10.535732 -0.23111296 4282338925
17.815756 -10.675261 -0.23187494 4280363318
16.546835 7.2195854 -0.41724721 4280886037
16.559586 7.1045165 -0.41639277 4289438353
16.606552 7.0043297 -0.4164933 4291542434
16.663069 6.9080453 -0.41687024 4291740063
16.727362 6.8147259 -0.41747338 4293648062
16.818975 6.7320242 -0.41883039 4294503887
16.91951 6.652112 -0.42043871 4293451199
17.056061 6.5852637 -0.42302713 4292990650
17.141947 6.4978514 -0.4242585 4290491029
17.187119 6.3946395 -0.42440927 4290161551
17.200676 6.2798033 -0.42373076 4292660916
17.287823 6.1916742 -0.42503753 4294767061
17.59618 6.1805797 -0.43224987 4294504402
17.579897 6.0539384 -0.43081746 4293649093
17.528625 5.9162188 -0.42848036 4293253820
18.021118 5.9595566 -0.44056791 4292134823
18.11631 5.8679719 -0.44212598 4290358412
18.232018 5.7820916 -0.4442369 4289372033
18.343533 5.6938267 -0.44624734 4290556820
18.406818 5.5898819 -0.44700122 4292266923
18.40148 5.4651628 -0.44597089 4292069028
18.420269 5.3479686 -0.44559395 4292530348
18.431578 5.2288394 -0.44504109 4283319079
18.432486 5.1071038 -0.4442369 4284369992
18.510761 5.0067005 -0.44546831 4294568428
18.624258 4.914969 -0.44762948 4282987820
18.729578 4.8200383 -0.44958964 4291080595
18.86837 4.7325134 -0.45242932 4292265636
18.997078 4.6410933 -0.45501772 4292790953
19.166216 4.5579867 -0.45866159 4292001437
19.277582 4.4596815 -0.46082279 4291409558
19.383583 4.3590832 -0.46285832 4290226315
19.526186 4.2654614 -0.46584877 4289831817
19.666407 4.1698375 -0.46878901 4290751893
19.927608 4.0976262 -0.47484538 4293318333
18.744518 3.7345526 -0.44388509 4294898142
18.704258 3.6073482 -0.44227678 4292267452
18.648405 3.4780285 -0.44029149 4292990658
4.3949542 0.7909013 -0.07567893 4288384394
18.551796 3.2249439 -0.43677327 4289040761
18.509121 3.1006424 -0.43519008 4291540391
18.416275 2.9690273 -0.4323504 4290488473
18.354126 2.843569 -0.43031484 4288845701
18.308933 2.7216325 -0.42873165 4287988591
18.237207 2.5966926 -0.42649508 4288514414
18.173553 2.4739499 -0.42448467 4287594080
18.14378 2.3565953 -0.42335382 4294042317
18.132101 2.2420316 -0.42270043 4293649881
3.8474119 0.45085418 -0.060801912 4280426278
3.736841 0.41463506 -0.057937082 4282400824
3.8178573 0.39995059 -0.059922356 4281347356
3.841131 0.37858257 -0.060450088 4292465856
17.729473 1.6418819 -0.41101494 4293383096
2.7369773 0.23554409 -0.032480296 4284438105
2.6955228 0.21530472 -0.031399701 4292991187
2.5622048 0.18878324 -0.028007139 4294767574
2.359849 0.15922862 -0.022880599 4283384367
2.354795 0.14437583 -0.022729818 4284767826
1.852574 0.10192818 -0.010064252 4294441452
1.8202153 0.088928141 -0.0092349574 4286613375
1.8087418 0.077238292 -0.0089333951 4287205513
1.7762148 0.064912125 -0.0081041045 4284243796
1.7595934 0.053484641 -0.007676892 4283123769
1.7149166 0.04156629 -0.0065460391 4285951587
1.7001467 0.0307614 -0.0061690845 4279766283
1.6633182 0.019861298 -0.0052392744 4281738791
1.6634086 0.0096549969 -0.0052392744 4281739301
1.6564387 -0.00055426371 -0.0050633624 4282067239
1.6574037 -0.010723733 -0.0050884932 4282459942
1.6583065 -0.020905068 -0.0051136203 4284234813
1.6591464 -0.03109788 -0.0051387511 4286206538
1.6599238 -0.041301791 -0.0051638819 4287586390
19.82448 -0.72398579 -0.46210441 4287074966
19.987459 -0.85276198 -0.46632627 4287074707
20.1486 -0.98351651 -0.47052297 4288324261
20.305885 -1.116116 -0.47464433 4291350222
20.500217 -1.2529976 -0.47972062 4294704382
