# .PCD v0.7 - Point Cloud Data file format
VERSION 0.7
FIELDS x y z rgb
SIZE 4 4 4 4
TYPE F F F U
COUNT 1 1 1 1
WIDTH 1108
HEIGHT 1
VIEWPOINT 0 0 0 1 0 0 0
POINTS 1108
DATA ascii
18.021454 7.2096224 0.74394667 4284967262
18.034658 7.0868487 0.74274319 4284571993
17.998552 6.945478 0.73964328 4284506711
17.940836 6.797029 0.73574108 4284375376
18.018736 6.7004008 0.73716336 4284375374
18.108326 6.6075258 0.73905981 4284571211
18.225681 6.5239058 0.74205029 4285030735
18.337975 6.4374385 0.74485838 4285556566
18.452723 6.3508139 0.74777591 4285295189
18.568991 6.2636604 0.7507664 4285229396
18.708603 6.1831579 0.75466865 4285295187
18.807991 6.0882511 0.75703913 4285295189
18.976458 6.0143967 0.76207191 4285361505
19.08268 5.9194579 0.76473415 4286018921
19.199924 5.8269243 0.76783407 4286018407
19.330162 5.737154 0.7714445 4285821280
19.45042 5.6432195 0.77469027 4284637006
19.571211 5.5482965 0.77797252 4284572244
19.71179 5.4577026 0.78202063 4285097305
19.816298 5.3559446 0.78471935 4284898648
18.41189 4.8553634 0.73048949 4292728779
18.447144 4.7437916 0.7307083 4282597934
20.302177 5.0881824 0.79941648 4290690213
20.413593 4.9831834 0.80244339 4292268214
20.497261 4.8705397 0.8044492 4293189818
20.713703 4.7878871 0.81145132 4287466091
20.845072 4.6837015 0.81528062 4283715385
20.959335 4.574461 0.81848991 4285557330
21.122902 4.474555 0.82355911 4294438356
21.234142 4.3621554 0.8266955 4293583036
21.425167 4.264555 0.83282232 4294899674
21.526493 4.1475692 0.83563048 4284240967
21.551537 4.0154061 0.83563048 4285293655
21.572819 3.8825622 0.83552104 4291675570
21.613956 3.7531981 0.83617753 4292727728
21.60997 3.6160541 0.83519286 4292004004
21.725477 3.4984813 0.83865744 4294964697
21.830481 3.3780987 0.8417573 4286873449
21.880451 3.2484882 0.8428514 4293716175
3.920881 0.5578686 0.18013138 4281081361
21.246302 2.888344 0.81808871 4292923317
21.259663 2.7574105 0.81794286 4293910974
22.700413 2.802732 0.87031275 4294569162
3.6723535 0.43087745 0.17053996 4283452481
3.6947925 0.41054133 0.17126934 4284505946
3.3702519 0.35359392 0.15927094 4290822587
3.3842921 0.33408448 0.15970857 4293388001
2.9225643 0.27046093 0.14271387 4283781972
2.9162037 0.25183654 0.14242212 4292860355
23.9175 1.914897 0.91123134 4288059790
2.300174 0.17031053 0.1197747 4284439126
2.3430519 0.15902907 0.1213064 4285492327
2.0986114 0.12954773 0.11233496 4293059541
1.8748606 0.10423329 0.10412937 4281937701
1.836538 0.090810791 0.10270707 4282857776
1.8011179 0.077991627 0.10139418 4282265899
1.7855841 0.066348441 0.10081066 4283055933
1.7899531 0.055514105 0.10095654 4290095015
1.7133347 0.042633306 0.098148406 4288710531
1.6885849 0.031657092 0.097236678 4281868836
1.6687622 0.021048088 0.096507289 4281607205
1.6648626 0.010783395 0.096361414 4281673251
1.657902 0.00056702411 0.096106127 4281935142
1.6498798 -0.0095575005 0.09581437 4282328358
1.6447937 -0.019620022 0.095632024 4284300860
1.6516367 -0.029839916 0.095887311 4286599234
1.6654091 -0.040315431 0.096397877 4287719247
27.333387 -1.0033762 1.0337681 4294964685
27.481474 -1.1777061 1.0394208 4294371785
27.564558 -1.3507593 1.0427395 4292859591
27.528811 -1.5183804 1.0417548 4285358167
27.761358 -1.7021301 1.0506169 4294437576
27.744411 -1.8720347 1.0503981 4294767310
28.805777 -2.1212952 1.0896755 4294504139
29.051222 -2.3186796 1.0991576 4294635475
29.325188 -2.521724 1.1097336 4294240717
29.633572 -2.7315195 1.1216226 4292924855
29.705763 -2.922102 1.1249049 4294833630
29.741938 -3.1100354 1.1269107 4283516482
29.78487 -3.2994025 1.1292082 4281871917
29.903025 -3.4983554 1.1343139 4279897877
30.26186 -3.728704 1.1483182 4285950570
30.490139 -3.9469066 1.1575813 4290687901
30.955528 -4.2004361 1.1756337 4292069281
31.34868 -4.4498501 1.1910967 4288056157
31.617348 -4.6860757 1.2020375 4292595623
31.902063 -4.9285102 1.2136346 4293517757
32.23333 -5.1823874 1.2270188 4294900188
32.615887 -5.4494071 1.2423724 4294964189
32.560173 -5.6456757 1.2415701 4294438609
33.530132 -6.0260234 1.2788417 4292990395
33.810848 -6.2908773 1.2906578 4292200113
33.559647 -6.4574299 1.2827804 4291147173
34.72385 -7.5696363 1.332561 4286214793
22.177238 -4.9771285 0.86506116 4283714909
22.087862 -5.0996227 0.86287302 4281677119
22.057127 -5.2352858 0.8629095 4280822327
23.03722 -5.6174679 0.90094697 4287335585
22.954817 -5.7468228 0.89915997 4287795104
22.923962 -5.8888063 0.8993423 4283453271
23.097099 -6.0846004 0.90725619 4280295207
24.168827 -6.5257998 0.94919586 4280558127
24.13122 -6.6747732 0.94930524 4284506220
23.948467 -6.7826805 0.94394428 4286808711
20.428188 -6.3311133 0.81608295 4285366666
20.457552 -6.4780622 0.81870872 4283590244
20.434532 -6.6090007 0.81936514 4285101946
20.390749 -6.7333202 0.81925577 4283389269
20.186169 -6.8034086 0.81298304 4294178541
20.146879 -6.9281154 0.81309247 4294638573
20.106819 -7.052597 0.81320184 4292927955
20.046228 -7.1697788 0.81254542 4290691253
19.92581 -7.2649164 0.80959141 4294572786
19.809666 -7.3605876 0.80681974 4294310129
19.627678 -7.4303403 0.80149519 4294704626
19.364464 -7.4668579 0.79299784 4294770165
19.398279 -7.6169486 0.79613423 4293783013
19.324268 -7.7250729 0.79507661 4287598730
19.200602 -7.8126121 0.79208612 4294572789
19.180002 -7.9417477 0.79318023 4293717737
19.228531 -8.1004114 0.79704595 4294639359
19.111412 -8.1895075 0.7943837 4294835707
19.937523 -8.6887093 0.82928479 4294439670
20.215488 -8.9578485 0.84252316 4288059541
20.712296 -9.3304644 0.86462355 4291810510
30.347691 -13.895836 1.253678 4289309348
30.208401 -14.056908 1.2515262 4289309597
30.101706 -14.232601 1.250724 4289110681
29.984081 -14.402755 1.2495204 4287202432
29.888861 -14.583396 1.2492651 4286678656
29.788965 -14.761634 1.2488639 4286874758
29.695148 -14.94279 1.2487546 4286217088
29.597563 -15.121986 1.2485358 4288914090
29.521963 -15.312511 1.2492651 4287990927
19.180653 -10.098341 0.82665902 4290491829
19.13772 -10.226203 0.82746136 4283848017
19.031569 -10.320094 0.82567436 4283908419
18.968761 -10.437158 0.82571083 4286006608
18.893021 -10.547018 0.82523674 4282261023
20.260118 -11.473853 0.88530165 4284568149
20.100948 -11.547174 0.88158178 4283844946
19.711105 -11.484647 0.8681246 4280953137
19.598108 -11.580464 0.8663376 4279902757
16.955845 7.3980722 0.48468527 4290358928
17.053284 7.3163643 0.48606795 4291806372
17.140224 7.2294636 0.48718381 4293187257
17.270144 7.1597681 0.48943979 4286607959
17.390591 7.0849767 0.49145317 4285292374
17.494991 7.0026593 0.49305418 4285951847
17.638107 6.9346919 0.49567401 4282269234
17.750271 6.8533463 0.49749333 4282468666
17.848074 6.7655678 0.49894878 4282534714
17.983883 6.6911416 0.5013988 4284508243
18.09127 6.6050153 0.50312114 4286941050
18.218987 6.525239 0.50537705 4291743947
18.328478 6.4378471 0.50717211 4293585383
18.450811 6.3539138 0.50930679 4294504422
18.54723 6.260088 0.51078653 4294701793
18.661222 6.1712818 0.51272714 4291608746
18.822372 6.0967174 0.5158807 4291937709
18.948048 6.0092211 0.51813662 4291411367
19.064762 5.9177442 0.52017426 4292529076
19.164804 5.8201213 0.52179956 4292070061
19.18578 5.6981483 0.52143568 4292400305
19.217501 5.579483 0.5213629 4292267690
19.224445 5.4538202 0.52068365 4292857006
19.171804 5.3119965 0.51852477 4293186489
19.214653 5.1971321 0.51879156 4281017615
18.426506 4.8627691 0.49822107 4293585881
18.450188 4.7481194 0.49807552 4294965980
19.666801 4.9328251 0.5277912 4292923313
19.751083 4.8253489 0.52914965 4293842099
19.897028 4.7318296 0.53206056 4293251502
20.023083 4.6321926 0.53448629 4294174152
20.193529 4.5412779 0.53802794 4285688415
20.353838 4.446311 0.541327 4283518537
20.453106 4.3366876 0.54312205 4290688933
20.603691 4.2366867 0.54620278 4294503368
20.753811 4.1350007 0.5492835 4293450162
20.885788 4.0282216 0.55192763 4285818172
21.055555 3.927129 0.55551773 4285883211
21.18158 3.8163013 0.55804056 4291277219
21.3612 3.713495 0.56189752 4290422414
21.487108 3.5997045 0.5644446 4291410078
21.603539 3.4830754 0.5667733 4285950805
21.743053 3.3688273 0.56968427 4290753698
4.051374 0.60131884 0.13518037 4293519312
22.103422 3.1474319 0.57754374 4281147408
21.279354 2.8969409 0.55690044 4292593583
21.26996 2.7628407 0.55624545 4292857520
22.716188 2.8091507 0.59120083 4293977541
22.552294 2.648483 0.58678591 4284966224
3.7965355 0.42127746 0.12848523 4290164145
3.69366 0.38690171 0.12591392 4281348655
3.134866 0.30875704 0.11223259 4294242786
2.9376137 0.27106586 0.10738105 4282596906
23.119791 1.8555751 0.59859943 4294899926
2.3130176 0.17030914 0.092074439 4285821278
2.3469334 0.15835074 0.092874944 4284504399
2.3049552 0.14129533 0.091831863 4288979093
1.8605989 0.10237478 0.081012934 4287926404
1.8042785 0.088139281 0.079630241 4288189836
1.8057842 0.077110082 0.0796545 4287137152
1.7662627 0.064541869 0.078684196 4287793799
1.7886086 0.054385863 0.079217859 4286939518
1.7069579 0.041367963 0.077228725 4294701041
1.6572032 0.029954888 0.076015845 4280950306
1.6583555 0.019798556 0.076040104 4281476132
1.6434504 0.0095251305 0.075676233 4281804067
1.6414785 -0.00055981218 0.075627722 4282000933
1.6424439 -0.010637488 0.075651973 4282656553
1.644347 -0.020738928 0.075700492 4285286725
1.6441888 -0.030828061 0.075700492 4286139712
1.6719521 -0.041592609 0.076379709 4288506971
1.6706663 -0.051820435 0.076355457 4285815621
26.362637 -0.96237218 0.67590868 4292200616
26.518042 -1.1310061 0.67983842 4282200608
26.783199 -1.3069869 0.68646079 4294964716
27.063152 -1.4871407 0.69347125 4280556310
27.386801 -1.6735206 0.70157331 4291675301
27.536608 -1.852327 0.70547885 4291017109
27.798906 -2.0413761 0.71214968 4292068766
28.13166 -2.2394221 0.72056711 4293252781
28.314606 -2.4289021 0.72537011 4294107324
28.680452 -2.6376412 0.73466086 4294766028
28.911465 -2.8378785 0.74070102 4294570195
29.188818 -3.0460281 0.74790555 4294373331
29.635603 -3.276576 0.75928241 4294636505
29.971415 -3.499969 0.76799089 4289896069
30.117062 -3.7044234 0.77209044 4291144846
30.058071 -3.8845372 0.77121717 4289697661
30.104008 -4.078423 0.7729395 4288448624
30.238766 -4.2857819 0.77686924 4287001692
30.711315 -4.5451345 0.78911936 4285291589
21.58403 -3.4658718 0.56623966 4286147933
21.595884 -3.6038363 0.5670644 4287594354
21.660242 -3.8883574 0.56978124 4286871925
22.081219 -4.1039166 0.58077002 4280359961
22.148891 -4.2572489 0.58307451 4288849827
20.933901 -4.1571326 0.55367416 4294638328
20.947172 -4.29353 0.55464447 4287531655
20.92728 -4.4234247 0.55481428 4290753461
23.101496 -5.0311418 0.60949111 4285819245
22.247849 -4.9884524 0.58904189 4294832625
22.159348 -5.1116138 0.58761066 4294108124
22.16453 -5.256249 0.58853245 4290822587
22.875198 -5.7221274 0.60796291 4291677132
22.906469 -5.8795257 0.60963666 4285292640
20.05249 -6.0759568 0.54421365 4285036928
19.81715 -6.13767 0.53919232 4285036929
19.790556 -6.2627687 0.53948343 4285363839
19.731779 -6.3776283 0.53897399 4293981681
19.677086 -6.4935684 0.53858584 4293518812
19.612238 -6.6058869 0.53795516 4294372828
19.531628 -6.7124567 0.53693634 4294702048
19.4646 -6.823246 0.53628141 4286938742
19.38283 -6.9284201 0.53526258 4284308316
19.281713 -7.0260034 0.53375858 4283650135
19.192318 -7.127131 0.53257 4284440164
19.100538 -7.2267189 0.53133285 4293652464
18.998001 -7.321497 0.52982885 4294704634
18.856863 -7.4003167 0.52733028 4294243570
18.729404 -7.4832449 0.5251956 4294769914
18.71277 -7.6100755 0.52597189 4285624687
18.828302 -7.7920237 0.53024125 4286545532
19.050106 -8.0210571 0.53734875 4293782760
19.201788 -8.2239799 0.54266119 4293915638
19.689901 -8.576354 0.5569247 4291483364
17.068436 -8.7165337 0.5008409 4293518818
17.133564 -8.8827486 0.50409138 4294899444
18.442961 -9.7055302 0.54149681 4290164658
18.333677 -9.7921391 0.54013836 4292403160
19.022976 -10.31076 0.56083018 4293781990
18.949717 -10.421989 0.56056333 4288841867
18.881046 -10.535631 0.56044203 4286862937
19.769583 -11.190989 0.5870285 4289227121
19.698807 -11.311088 0.58697999 4294430923
19.578062 -11.402062 0.58554876 4294373854
18.714935 -11.053777 0.56320745 4279768334
16.709846 7.2872105 0.25235718 4291148696
16.821331 7.2133107 0.25322354 4291477407
16.910425 7.1289935 0.2538051 4292201132
16.987104 7.0388784 0.25423235 4292793520
17.053129 6.9439421 0.25452903 4292266409
17.100056 6.8410325 0.25458837 4291608479
17.125889 6.7297626 0.2543866 4291279260
17.209772 6.6411123 0.25493252 4291214237
17.312849 6.5591245 0.25572771 4291476378
17.427748 6.4806504 0.25667715 4290753684
17.538574 6.399642 0.25757909 4285096781
17.650944 6.3181911 0.25850481 4285031512
17.767689 6.2372561 0.25948983 4282927419
17.912466 6.164887 0.26083091 4291018913
18.021017 6.0788312 0.26172101 4291937442
18.125389 5.9904194 0.26256365 4292263837
18.231251 5.9015698 0.26343 4292791210
18.368158 5.8216157 0.26468801 4292265637
18.487577 5.7348695 0.26573238 4293186998
18.61236 5.6486187 0.26684797 4292002724
18.716648 5.5550766 0.26771432 4292002724
18.835852 5.4649253 0.26877058 4291213208
18.969078 5.3776093 0.27000487 4291215771
19.120251 5.293932 0.27146459 4292465847
19.24118 5.2005143 0.27255645 4283320370
18.490522 4.8760972 0.26295528 4291741621
18.461987 4.7476087 0.26224321 4294832852
19.593588 4.9106083 0.27573708 4294240966
19.80986 4.8358173 0.27801573 4294766279
19.899477 4.7285066 0.27875155 4294108090
20.043077 4.6328869 0.28015196 4292594859
20.223322 4.5440121 0.28200334 4287596652
20.291853 4.428793 0.28250182 4292334258
20.324514 4.3054442 0.28257301 4292858282
20.335857 4.1776361 0.28239501 4291606936
20.343456 4.0492659 0.28218138 4294634446
20.305079 3.9122581 0.28142184 4287265887
20.369989 3.7952864 0.28192028 4286411356
20.423401 3.6757171 0.28228819 4294504162
20.590393 3.5754776 0.28403276 4292924352
20.851597 3.4891675 0.2869167 4293058243
21.106581 3.3988311 0.28972939 4282925871
4.0929432 0.63366896 0.085149504 4290622882
21.329683 3.166728 0.29192498 4293912789
21.40316 3.0435336 0.29257771 4283123001
21.379818 2.9064925 0.29207924 4294966241
21.326845 2.7661231 0.29123664 4294966233
21.979542 2.7137411 0.29884398 4293781203
22.01763 2.5813873 0.29910508 4278913027
3.8450623 0.42722255 0.081909552 4286348150
3.6815326 0.38621643 0.079927601 4293060329
3.5395434 0.34939244 0.078206748 4285230190
2.9641218 0.27430126 0.071323335 4281413935
2.9019902 0.25061098 0.070563778 4284111959
23.18417 1.8561966 0.31204116 4293057457
23.202103 1.7144219 0.31212425 4283450671
2.3145075 0.1570964 0.063526079 4285887075
2.2994592 0.14190908 0.063336194 4287861122
1.8470136 0.10269087 0.057948142 4292992979
1.8206434 0.090028204 0.057627704 4288585625
1.8041786 0.078123502 0.05742595 4286479998
1.7886361 0.066461176 0.057236061 4284637792
1.7590265 0.054561615 0.056880023 4292202700
1.7453334 0.043422326 0.056713872 4283449660
1.6925797 0.031731073 0.056084871 4280553998
1.669746 0.021060267 0.055811904 4281606175
1.6668441 0.01079577 0.055776305 4282000933
1.6628792 0.00056756701 0.05572883 4282198055
1.6598517 -0.0096175997 0.055693228 4282590503
1.6607612 -0.01981424 0.055705093 4283773233
1.6636077 -0.030058993 0.055740699 4285416252
1.6753876 -0.040559299 0.055883117 4287392602
1.7350749 -0.052672341 0.056595191 4294831061
26.026634 -0.95538831 0.34510529 4291476631
26.671637 -1.1429894 0.3528432 4291015316
26.723045 -1.3095104 0.35354343 4291541662
26.809359 -1.4786881 0.35467088 4290685585
26.802774 -1.643343 0.35470647 4290027143
26.88397 -1.8139652 0.35579833 4286934872
26.990005 -1.9875551 0.35719875 4285816904
27.160707 -2.1677659 0.35938245 4286606936
21.707359 -1.8665529 0.29458338 4290093965
26.359392 -2.4296741 0.35017291 4281410839
26.303186 -2.5873528 0.34968632 4285819750
26.266924 -2.7466171 0.34944898 4287464583
21.718349 -2.5407233 0.29552096 4290820796
21.858162 -2.6931374 0.29738423 4290755779
25.981377 -3.3631961 0.34693298 4290624705
25.903772 -3.5148869 0.34625649 4287072133
20.548344 -3.6927886 0.28378356 4294106594
20.542011 -3.8219109 0.28398532 4287661190
20.519152 -3.9480715 0.28399718 4282069048
20.971182 -4.1686554 0.289765 4283253572
21.04512 -4.3177538 0.29097554 4287983995
21.999435 -4.6544142 0.3028791 4286866034
22.025173 -4.80124 0.30354372 4284899426
21.889927 -4.9126439 0.30226198 4290162866
20.579386 -5.1520844 0.28778306 4282798152
20.684912 -5.31359 0.28946829 4283718484
20.672224 -5.4457603 0.28971753 4291873993
21.322786 -5.8979049 0.29857102 4287464581
19.876404 -5.7612972 0.28161171 4284901995
19.778364 -5.8646698 0.28084028 4287469205
19.758276 -5.9908504 0.28104204 4284970358
19.692492 -6.1030912 0.28068602 4285299836
19.659437 -6.2253165 0.28074536 4285561467
19.570448 -6.3295174 0.28011635 4285296764
19.468575 -6.4287863 0.27933306 4285824135
19.256308 -6.4899955 0.2771731 4285760137
19.152769 -6.5862403 0.27637795 4285824901
19.084631 -6.694037 0.27603376 4285629065
18.923626 -6.7682433 0.27452654 4282799452
18.831013 -6.8657322 0.27388567 4285036151
18.775408 -6.9762721 0.27371952 4286680978
18.663982 -7.0654993 0.27285317 4285167487
18.571764 -7.1611791 0.27223602 4285757564
18.452084 -7.2453938 0.27127472 4294900989
18.397064 -7.354394 0.27114415 4294572024
18.434952 -7.5010567 0.2722123 4294769403
18.621391 -7.7104349 0.27520302 4293651694
19.174541 -8.0776653 0.28294092 4291876564
23.243422 -10.299645 0.3377353 4290629844
18.595556 -8.9321508 0.28084028 4294834670
18.696886 -9.2649002 0.28365302 4289377452
17.087284 -8.5982494 0.26302648 4293456879
17.036877 -8.7042971 0.26306209 4292203987
19.187637 -10.102018 0.29336101 4294373099
19.120001 -10.216733 0.29328978 4294111208
19.035856 -10.322419 0.29300496 4294638320
18.973036 -10.439508 0.29301682 4294900462
18.906878 -10.554754 0.2929931 4290486676
19.641361 -11.123421 0.30389974 4294435026
17.392136 -9.9910116 0.27405185 4294702308
17.355558 -10.112138 0.274396 4291869107
17.356028 -10.255573 0.27526236 4290885318
17.56896 -10.527376 0.27908385 4289573833
16.442314 7.1808014 0.023665156 4291806374
16.549467 7.1070089 0.023616984 4292135339
16.62961 7.0208898 0.02358906 4292530097
16.728718 6.9421048 0.023546474 4292069548
16.790443 6.8472595 0.023531813 4292464304
16.833069 6.7444787 0.023531117 4291608995
16.857386 6.6344724 0.023543682 4292070059
16.920164 6.5395665 0.023526926 4292530610
17.16098 6.5119128 0.023376828 4292792499
17.420828 6.4885302 0.023212768 4294371785
17.530756 6.4072657 0.023160407 4291280290
17.640337 6.3248959 0.023108047 4290557339
17.738247 6.2374401 0.023064066 4291215528
17.837631 6.1496725 0.023018688 4290690463
17.963135 6.0698838 0.02295376 4291871651
18.131994 6.0032473 0.02285672 4292462766
18.21034 5.9054542 0.022826003 4282923049
18.310091 5.8138862 0.022779228 4286213993
18.356878 5.7049904 0.02277085 4294438623
18.115997 5.5084472 0.022971913 4292858031
18.249142 5.4268355 0.022899307 4292791460
18.274414 5.3125248 0.022904892 4293384115
18.378811 5.2207937 0.022852533 4293842608
18.510714 5.1357355 0.022779927 4293579177
18.592066 5.0356565 0.022743624 4282794034
18.605213 4.916883 0.022756189 4290487446
18.492685 4.7659364 0.022858813 4293445291
18.803808 4.7232881 0.022655658 4293907120
19.179203 4.6926885 0.022406425 4293383599
19.27281 4.5904465 0.022359651 4293383086
19.375628 4.48949 0.022305895 4293253042
19.525726 4.3982139 0.022217929 4290689174
19.63245 4.295856 0.022160683 4293252532
19.792448 4.2037835 0.02206504 4293778106
19.908955 4.1010284 0.022000112 4293252789
20.070055 4.0060077 0.021903072 4291740581
20.232695 3.9095433 0.021804636 4294898394
20.35067 3.8029642 0.021737617 4293320395
20.431679 3.6885083 0.021696426 4293715672
20.390877 3.5520854 0.021741107 4292859589
4.2042747 0.70488626 0.033214901 4289307272
21.06572 3.4038739 0.021293603 4293188542
21.164272 3.2866805 0.02123845 4283518523
21.238438 3.1648662 0.021200053 4285622367
21.290125 3.0391552 0.021177016 4282791481
21.275677 2.9039998 0.021200053 4293383374
21.258389 2.7688775 0.021224488 4285751110
21.253145 2.6356776 0.021239847 4285027411
21.313606 2.5104878 0.021208432 4283450697
3.8541484 0.42904472 0.03348368 4285887348
3.8030057 0.39972681 0.03352138 4289243302
2.969245 0.27503708 0.034109205 4282726723
2.9220603 0.25257373 0.034143414 4293188556
22.471064 1.8113651 0.020452354 4292268475
22.511673 1.6756796 0.020431411 4282267177
2.320626 0.15737091 0.034567181 4284901718
2.3704538 0.14616877 0.034532972 4286874227
1.8121822 0.10030931 0.034923926 4294045667
1.8207537 0.089586377 0.034918342 4287993486
1.8182719 0.07828179 0.034920435 4287729804
1.8037287 0.066560708 0.034930907 4286082922
1.7301395 0.0531688 0.03498257 4283052333
1.7204363 0.042299256 0.034989551 4283707952
1.6766716 0.03090049 0.035020269 4281472531
1.6658307 0.020469137 0.035027947 4282001446
1.660925 0.010213128 0.035031438 4282000935
1.6609563 2.1692831e-05 0.035031438 4282394149
1.6609253 -0.010169744 0.035031438 4282788133
1.6598315 -0.020349247 0.035032138 4283970349
1.6576759 -0.030498024 0.035033531 4285941817
1.6824504 -0.041264296 0.035016079 4287457365
20.55551 -0.7434606 0.021831166 4289832331
20.532579 -0.86881292 0.021843731 4288845951
20.458941 -0.99149436 0.021891205 4293517002
20.370594 -1.1125424 0.021948451 4287069035
20.340425 -1.2361192 0.021964509 4287004517
20.302525 -1.3589005 0.021985453 4288122228
20.276848 -1.4822106 0.021997321 4294833634
20.290304 -1.6084152 0.021981264 4294834153
20.29101 -1.7338198 0.021973584 4294966255
21.485914 -2.6355152 0.021078579 4291615977
21.729191 -2.8007801 0.020895667 4285768649
22.974131 -3.1046021 0.020006249 4290500578
22.948708 -3.2446704 0.020010438 4280888882
22.892338 -3.5237608 0.02002091 4280690214
22.869297 -3.6640012 0.020021608 4280360988
21.742573 -3.6205125 0.020802818 4278649089
21.651958 -3.7421067 0.020850988 4291413697
21.569529 -3.8643124 0.020892877 4281807919
20.752922 -3.8496282 0.021455571 4280754976
21.250404 -4.0769134 0.021084862 4278190080
21.190659 -4.2004232 0.021109298 4284767840
21.207592 -4.3391852 0.021078579 4284501331
21.090551 -4.4502411 0.021142807 4283580743
21.041349 -4.574894 0.021158166 4283516751
20.934813 -4.6864433 0.021214016 4280819755
21.3818 -5.4803119 0.020781174 4280886839
22.268505 -5.853374 0.020116555 4279176223
22.252449 -5.9953628 0.020101894 4287005077
19.437485 -5.493803 0.022089474 4289375165
19.388039 -5.60852 0.022100644 4290625737
19.445314 -5.7546139 0.022033624 4292206299
19.432611 -5.8807697 0.022016868 4291745230
19.382786 -5.995759 0.022026643 4293060838
19.308445 -6.1028256 0.022053869 4294179319
19.242086 -6.2119703 0.022074813 4292731871
19.164669 -6.3170872 0.022103436 4291285195
19.078156 -6.4186201 0.022138342 4291088588
18.992067 -6.5196533 0.022172552 4291154383
18.904512 -6.6195426 0.022207458 4292272611
18.828693 -6.7229738 0.022233289 4290035653
18.750441 -6.8250408 0.022260517 4289445060
18.629452 -6.9107528 0.02231916 4289510338
18.535248 -7.0054884 0.022357557 4294179838
18.451786 -7.1036401 0.022387575 4294573566
18.137852 -7.1108909 0.022590034 4286546050
18.165396 -7.2505894 0.022536278 4289902515
18.251198 -7.4149776 0.022437841 4294442491
18.74229 -7.7487779 0.022032227 4284576113
21.356173 -9.1377277 0.019974135 4292800502
21.198534 -9.379693 0.020007646 4289900725
17.532183 -8.0163565 0.022732453 4294704111
17.485386 -8.1250448 0.022730358 4294639593
17.730909 -8.3717785 0.022502068 4294179309
17.882078 -8.5777149 0.02234499 4294178543
17.891142 -8.7174959 0.02229682 4280952359
17.931423 -8.8736744 0.022223515 4281873724
17.885574 -8.9880228 0.022216532 4282400581
17.00256 -8.6754208 0.022865098 4286020985
17.11417 -8.8651237 0.022735246 4286876801
17.640097 -9.2752295 0.022277271 4287203459
17.513157 -9.3461037 0.022332422 4291807943
17.458118 -9.454814 0.022330329 4294895334
17.256044 -9.4827824 0.022444822 4291602083
16.633286 -9.2739344 0.022895817 4294763219
16.475969 -9.3192072 0.0229761 4294571749
16.401997 -9.4106731 0.022989366 4294311156
16.565216 -9.639883 0.022810644 4289244846
16.800295 -9.9151516 0.022571882 4289445830
16.287096 7.102859 -0.1931168 4292925887
16.28718 6.9842691 -0.19250979 4293714886
16.371191 6.90168 -0.19309096 4293254072
16.452028 6.8171735 -0.19363339 4292595114
16.566708 6.7458868 -0.19465369 4291937442
16.620787 6.6493073 -0.1948345 4291213719
16.612879 6.5281835 -0.19416292 4291805856
16.659151 6.4286456 -0.19425333 4291543200
16.768415 6.3528743 -0.19522195 4291805856
16.870811 6.2735629 -0.19610018 4291279514
16.955015 6.1867208 -0.19673301 4291279260
17.040668 6.0997558 -0.19739169 4290752406
17.169292 6.0272059 -0.19864444 4290423189
17.122749 5.8931098 -0.19750792 4290424721
17.436195 5.8815722 -0.20129204 4291410587
17.549807 5.8002033 -0.20235108 4290358930
17.656416 5.7155051 -0.2033197 4283255351
17.744532 5.6239767 -0.20404296 4282072370
17.871344 5.5437264 -0.20529571 4293057742
17.994009 5.4609699 -0.20649682 4291937709
18.108658 5.374639 -0.20759459 4288318569
18.256535 5.2968578 -0.2091444 4288514919
18.37431 5.2090087 -0.21029384 4289173884
18.474346 5.1151104 -0.21121082 4283714617
18.590328 5.0246148 -0.21234734 4288121212
18.638214 4.915041 -0.21257982 4287657322
18.560528 4.7729468 -0.21114624 4291801493
18.787329 4.7085567 -0.21378091 4293118885
19.184996 4.6832929 -0.21868864 4292856228
19.246447 4.5733466 -0.21912777 4293318576
19.288761 4.4585443 -0.21932149 4292924077
19.29917 4.3363805 -0.21910194 4292791978
19.30685 4.2138305 -0.21885654 4292397220
19.31669 4.0919714 -0.21864989 4292462245
19.347315 3.9745767 -0.21872738 4292001948
19.427237 3.8669143 -0.21946356 4294239426
19.575294 3.7716615 -0.22110376 4288647289
19.674742 3.6657631 -0.22211114 4291674288
19.826765 3.5683489 -0.22381595 4294109407
4.3287969 0.75199604 -0.020364717 4292925384
20.170843 3.3752673 -0.22776794 4291081610
20.342213 3.2757576 -0.22974396 4293384367
20.439007 3.1628041 -0.23075134 4285095247
20.523308 3.0470238 -0.23160371 4288846992
20.7505 2.9507368 -0.23432881 4289373585
20.770197 2.8236279 -0.23435465 4289242767
19.617027 2.5443885 -0.21911484 4292664011
19.610437 2.4212778 -0.2188307 4281742643
19.561367 2.2934539 -0.21800414 4293783021
3.8370621 0.42633444 -0.01348098 4286678665
3.8296611 0.40174043 -0.013351828 4287205249
3.8340445 0.37843075 -0.013377659 4291937962
19.205027 1.4191417 -0.21234734 4284898899
2.3074944 0.15662155 0.0065115616 4282004767
2.3094101 0.14252152 0.006498646 4286215787
1.8779398 0.10440385 0.012090875 4283913291
1.8206201 0.090027049 0.012839949 4286217335
1.7881715 0.077433802 0.013266146 4287863961
1.7956076 0.06671872 0.013175741 4284835424
1.7590038 0.054560915 0.013653599 4279834127
1.7543075 0.043643605 0.013718175 4285164128
1.6915584 0.031712156 0.014531825 4280292109
1.6827224 0.021220939 0.014648059 4282000933
1.6778215 0.010864324 0.014712635 4281935142
1.6718571 0.0005685463 0.014790125 4282328358
1.6698292 -0.0096777342 0.014815956 4282722087
1.6707383 -0.019935595 0.014803041 4285219909
1.6725841 -0.030223269 0.014777211 4285809979
1.6773652 -0.040607635 0.014712635 4287390032
19.0779 -0.81745648 -0.2102551 4292462261
19.267107 -1.0625815 -0.21285103 4294965229
19.378994 -1.1880659 -0.21438792 4294108639
19.584835 -1.3213593 -0.21715176 4294766317
20.103886 -1.4803596 -0.22398382 4282660922
20.302744 -1.6203164 -0.22668308 4278648834
20.406988 -1.7547145 -0.22816831 4282335041
20.658701 -1.9041297 -0.2315779 4283584854
20.824753 -2.0483775 -0.2338897 4281807167
21.046492 -2.2006621 -0.23693764 4280097834
21.238317 -2.3525515 -0.23961106 4284507762
21.45985 -2.5104785 -0.24268487 4287797925
21.726879 -2.6769598 -0.24636567 4289442752
21.933163 -2.8391082 -0.24927154 4288193976
21.890558 -2.9702725 -0.24894866 4279576898
21.814503 -3.0963831 -0.24819961 4278262069
21.714973 -3.2183011 -0.24715349 4283128952
21.624657 -3.3406408 -0.2462365 4281417562
21.532671 -3.4618356 -0.24530661 4281810520
21.438044 -3.5816975 -0.24435091 4281546052
21.360491 -3.7036045 -0.24362767 4279834396
21.262568 -3.8211572 -0.24264613 4281082914
21.302618 -3.9634395 -0.2434856 4280555805
21.284773 -4.0953979 -0.24357599 4280360222
21.421061 -4.258091 -0.24570698 4280425502
21.178061 -4.3450313 -0.24285275 4281277990
21.158825 -4.4765515 -0.24295607 4281410603
20.708908 -4.5142856 -0.23737678 4280163872
20.593014 -4.6215601 -0.2362144 4279506971
20.499966 -4.7329822 -0.23536202 4279375645
20.426758 -4.8482866 -0.23478085 4279112740
20.352909 -4.9628716 -0.23419964 4279376429
20.262905 -5.0728469 -0.23341185 4282009184
20.195566 -5.1878767 -0.23293397 4280035669
20.139179 -5.3053279 -0.23261109 4278850362
20.213402 -5.4577336 -0.23404467 4282008923
20.191095 -5.5848575 -0.23419964 4291087575
20.183386 -5.7162724 -0.23456126 4291415504
19.343134 -5.6067152 -0.22373843 4291348939
19.278648 -5.7164845 -0.22333807 4290886337
19.288183 -5.8483057 -0.22394508 4290359475
19.179693 -6.0733914 -0.22346723 4281740330
19.1297 -6.1869612 -0.22329932 4282069555
19.04286 -6.4180522 -0.22317019 4281873199
19.002174 -6.534451 -0.22315726 4281149728
18.943794 -6.6446347 -0.22291186 4281149728
18.910202 -6.7634406 -0.22301519 4282333999
19.938219 -7.8289733 -0.24028265 4287401601
19.834099 -7.9288931 -0.23950776 4279966743
19.753584 -8.0376301 -0.23906863 4285955721
19.633682 -8.1296101 -0.23808709 4289180342
19.432308 -8.1862602 -0.23596901 4293851896
19.013161 -8.1474028 -0.23079008 4294637041
18.83173 -8.2067852 -0.22894323 4284369222
18.777363 -8.3205595 -0.22889155 4294165957
17.689383 -7.9686427 -0.21420711 4286202435
17.43469 -7.9829497 -0.2112883 4282064155
17.777817 -8.539341 -0.21835285 4283127127
17.714302 -8.6430016 -0.21819788 4280034866
17.647497 -8.7448721 -0.21800414 4287006869
17.561352 -8.8368092 -0.21753919 4288519843
17.073164 -8.7228374 -0.21124956 4280495143
17.329987 -8.9885731 -0.21576983 4285496688
17.263891 -9.0891485 -0.21561486 4284048216
17.245718 -9.2151709 -0.21617022 4284637016
17.180937 -9.3165245 -0.21605396 4282461484
17.111185 -9.4150219 -0.21587315 4284829005
16.71172 -9.329258 -0.21082337 4292264114
16.480148 -9.3330708 -0.20824035 4289043607
16.576035 -9.5221767 -0.21052632 4288982462
18.139973 -10.869541 -0.23675683 4290105328
16.081385 7.016468 -0.40448111 4284044871
16.101166 6.9078064 -0.40385285 4291016870
16.130354 6.803442 -0.40350103 4292923313
16.204115 6.7177415 -0.40438059 4292925106
16.294098 6.6381812 -0.40571249 4293187511
16.34009 6.5403075 -0.40586326 4291739300
16.366888 6.4348016 -0.40551144 4292660402
16.416321 6.3382168 -0.40578789 4293910723
16.47827 6.2462287 -0.40641612 4294964443
16.56407 6.1627831 -0.40769777 4294963925
16.684206 6.0912075 -0.40990922 4293846209
17.023369 6.09694 -0.41797596 4291479452
17.081207 5.9996614 -0.41852883 4292401835
16.885183 5.8146529 -0.41234684 4290887063
17.389391 5.8692155 -0.42478621 4290163341
17.55036 5.8038449 -0.42810339 4290358409
17.596102 5.6994386 -0.42837983 4290752655
17.614542 5.5862246 -0.42795262 4290293133
17.645624 5.47715 -0.42787722 4290951578
17.662638 5.3638358 -0.42745 4291082653
17.694258 5.255074 -0.42742488 4291213469
17.707932 5.141108 -0.42694741 4292726709
17.796844 5.0487309 -0.42845523 4281476370
17.897814 4.9589267 -0.43028972 4283846209
17.993525 4.8667669 -0.43199855 4292530121
18.104239 4.7777014 -0.43410948 4285291345
18.255198 4.697926 -0.43727589 4289239167
18.3661 4.606503 -0.43941194 4291542684
18.495985 4.5186415 -0.44205061 4291146385
18.642984 4.4335227 -0.44514161 4291278741
18.740938 4.3355007 -0.4469761 4292265636
18.839359 4.2366614 -0.44883573 4293648060
19.081814 4.1683621 -0.45441461 4294701266
18.013702 3.8193169 -0.42631915 4291477661
18.004488 3.7020686 -0.42548987 4293779133
17.987648 3.5837097 -0.42448467 4293714882
17.941568 3.4602056 -0.42275068 4288979845
17.92905 3.3438189 -0.42189625 4289308562
4.3949542 0.7909013 -0.07567893 4288582794
17.848576 3.1026547 -0.41883039 4288844672
17.820938 2.9853141 -0.41764927 4290159508
17.772797 2.8652458 -0.41596556 4287198824
17.692242 2.7409818 -0.41347769 4286015320
17.643463 2.6226671 -0.4118191 4286804578
17.602814 2.5063238 -0.41038668 4290225301
17.594088 2.3950303 -0.40978357 4287068526
17.587633 2.2843244 -0.40925583 4286674798
17.56064 2.1713333 -0.40822551 4291477946
3.8712404 0.45365381 -0.061405037 4283057230
3.7159765 0.4123134 -0.05740935 4280560168
3.7810714 0.39608565 -0.058992546 4281152293
3.8461053 0.37907434 -0.060575742 4292594873
17.239729 1.5964954 -0.39865091 4292395172
2.7300057 0.23494111 -0.032304388 4284569934
2.6985121 0.21554479 -0.031475093 4294373600
2.3778019 0.16044888 -0.023332942 4286345832
2.3248615 0.14252569 -0.021975916 4284438861
1.9434048 0.10698305 -0.012351088 4293848804
1.8112291 0.088483334 -0.0090087876 4286743679
1.8027494 0.07697852 -0.0087826177 4287270027
1.7892019 0.065395288 -0.0084307939 4284439127
1.7366117 0.05277082 -0.0070988983 4284372805
1.7209128 0.041715715 -0.0066968165 4288254334
1.6901516 0.030573687 -0.0059177838 4280752658
1.6643177 0.019873938 -0.0052644014 4281474591
1.6784036 0.0097525669 -0.0056162253 4282000933
1.6564387 -0.00055426371 -0.0050633624 4282197285
1.6574037 -0.010723733 -0.0050884932 4282524710
1.6503096 -0.020809893 -0.0049125813 4284035635
1.660146 -0.03111591 -0.0051638819 4286271813
1.6739153 -0.041640069 -0.0055157021 4287128913
19.041248 -0.69542849 -0.44240242 4282138438
19.225391 -0.82029307 -0.44715202 4284836464
19.346806 -0.94442499 -0.45034352 4289244595
19.516323 -1.0727632 -0.45476642 4287600284
19.70495 -1.2044353 -0.45969194 4290427837
19.918617 -1.3402057 -0.46527079 4291743951
20.077517 -1.4746916 -0.46949264 4294506744
20.263411 -1.6133976 -0.47441813 4294769914
20.44636 -1.7542689 -0.47929338 4294967295
20.648247 -1.8992757 -0.48467126 4294243570
20.873985 -2.0492656 -0.49067733 4294770429
21.024082 -2.1943173 -0.49479869 4290427578
21.294401 -2.3546858 -0.50198585 4287466893
21.506935 -2.5118458 -0.50774062 4285295726
21.682615 -2.6673093 -0.51259077 4280888373
21.78878 -2.8161843 -0.5157069 4280231480
21.780006 -2.9510324 -0.51593304 4280035133
21.763468 -3.084897 -0.51598328 4280429111
21.727318 -3.2158892 -0.5155561 4280297273
21.677538 -3.3445737 -0.51480222 4280428610
21.558889 -3.4618359 -0.51231432 4280493637
21.364077 -3.700043 -0.5084694 4283126875
21.26619 -3.8176405 -0.50655955 4283849569
21.158817 -3.932533 -0.50442344 4281940291
21.124475 -4.0604005 -0.50417215 4280165161
20.99032 -4.1683335 -0.50138271 4281151796
20.853685 -4.2743731 -0.49854305 4283124565
20.749796 -4.38592 -0.4965578 4281216065
20.704914 -4.5093279 -0.49610546 4281019466
20.561749 -4.6104827 -0.49314007 4280428870
20.482418 -4.7248788 -0.4918333 4279640899
20.408295 -4.8398585 -0.49067733 4279642188
20.334507 -4.9543438 -0.48954651 4279773778
20.253296 -5.0664086 -0.48823974 4280234327
20.17341 -5.1781607 -0.48698321 4279839569
20.089054 -5.2881055 -0.48562619 4279773260
19.975151 -5.389401 -0.48351523 4279969864
19.885818 -5.4964209 -0.48205772 4279048246
19.828634 -5.6118021 -0.48145458 4279574330
19.724691 -5.7133412 -0.47964522 4278717479
19.638462 -5.819212 -0.47831336 4279637803
19.564117 -5.9280081 -0.47730812 4279835431
19.496817 -6.0384774 -0.47650394 4280033573
19.417461 -6.1447253 -0.47539821 4279836193
19.332783 -6.2486901 -0.47416684 4280296998
19.270342 -6.3593659 -0.47353861 4280428073
19.08411 -6.4280343 -0.46964344 4279769625
18.940313 -6.5092764 -0.46687916 4279900957
18.951904 -6.6435556 -0.46826127 4279901478
18.961618 -6.7778845 -0.46961829 4279506467
18.821985 -6.8585138 -0.46700481 4279178279
18.743 -6.9603043 -0.46602473 4279311408
18.674692 -7.0656276 -0.46534619 4283719537
18.602072 -7.1689377 -0.46456715 4289246404
18.5233 -7.2694325 -0.46363738 4291024355
18.424501 -7.361443 -0.46217981 4288195254
18.337315 -7.4574108 -0.46104896 4289246913
18.271812 -7.561759 -0.46052122 4286351518
18.208487 -7.666749 -0.46006888 4282007915
18.126181 -7.7633753 -0.45911393 4283323775
18.058041 -7.8656683 -0.45856106 4281283674
17.998468 -7.9714646 -0.45825952 4279834931
17.920959 -8.0690298 -0.45748049 4279572521
17.812933 -8.1522179 -0.45587215 4279376421
17.735382 -8.2487154 -0.45511824 4279114531
17.672684 -8.3518305 -0.45479155 4282796621
17.62291 -8.4609756 -0.45484182 4284506972
17.586836 -8.5768356 -0.45529416 4279901211
17.694235 -8.763998 -0.45979244 4280361762
17.515091 -8.8095245 -0.45627424 4280099358
17.473118 -9.0587616 -0.45818412 4285034343
17.426937 -9.1709261 -0.45846054 4284770658
17.340357 -9.2616711 -0.45760614 4282336070
17.238377 -9.3436031 -0.45632449 4279770668
17.17021 -9.4434185 -0.45602295 4279046953
17.130276 -9.5588255 -0.45655066 4293326079
17.019102 -9.6342087 -0.45504287 4289512405
16.953598 -9.734971 -0.45486695 4287408066
16.916006 -9.8518925 -0.45552033 4287935439
16.803591 -9.9250011 -0.45401251 4289052117
16.732943 -10.022269 -0.4537361 4283194737
16.091967 7.0177679 -0.62230414 4285163603
16.100742 6.904326 -0.62091607 4283057457
16.116098 6.7941465 -0.6198281 4292070326
16.025469 6.6404328 -0.61446333 4292133807
16.038147 6.5306721 -0.61333787 4291608997
16.131729 6.4536681 -0.61551374 4292397995
16.144981 6.3443317 -0.61446333 4292594859
16.196659 6.2501845 -0.61498857 4293449143
16.231899 6.1496239 -0.61487597 4294765003
16.350817 6.0802112 -0.61813986 4294964178
16.425367 5.9934707 -0.61964053 4294965203
16.499466 5.906044 -0.62114114 4292202934
15.525556 5.4502187 -0.58096176 4284572755
16.753067 5.7658863 -0.62838167 4289570454
16.855358 5.6856585 -0.63104528 4289962890
16.976273 5.6106634 -0.63445926 4289633667
17.069324 5.5254731 -0.63678521 4289636237
17.171494 5.4423699 -0.63948637 4288781187
17.279009 5.3599968 -0.6424126 4289701511
17.384247 5.275928 -0.64526379 4289702027
17.522631 5.2007194 -0.64942801 4290820508
16.547461 4.801034 -0.61007398 4291544485
16.538151 4.688509 -0.60857338 4292858546
16.525196 4.575479 -0.60696018 4293581243
16.497007 4.4588742 -0.60478425 4291475869
16.494102 4.3496685 -0.60362124 4291672480
16.481768 4.2384267 -0.60212064 4290554765
16.443489 4.1211843 -0.5996446 4290489744
16.383036 3.9993584 -0.59634322 4289833362
16.324627 3.8791234 -0.59315437 4288189052
16.298468 3.7674077 -0.59124106 4285226823
16.266678 3.6550643 -0.58914018 4286081362
16.24291 3.545171 -0.58737695 4288845699
16.229164 3.4379852 -0.58602637 4288713084
16.197096 3.3274822 -0.58400053 4292594612
16.173105 3.2192585 -0.58231229 4289239430
16.154284 3.1125889 -0.58084917 4294108880
4.5179634 0.84208155 -0.13576207 4289571732
16.01325 2.882082 -0.57405883 4294236604
15.999127 2.7783017 -0.57285833 4294039224
15.944911 2.6682076 -0.57015717 4293840818
15.900802 2.560631 -0.56786871 4294036658
15.867825 2.4555304 -0.56603044 4294430392
15.823285 2.3493168 -0.56377953 4294759357
15.787935 2.2451494 -0.56190372 4294365622
15.789531 2.1466193 -0.56145352 4294104499
15.770694 2.0455835 -0.56025302 4293843136
15.753194 1.9451048 -0.55912757 4293055424
15.791631 1.8515499 -0.56014049 4292134322
3.7403369 0.41559714 -0.10451143 4283977033
3.7984726 0.39847186 -0.1066123 4290751905
3.789907 0.37407869 -0.10619963 4294633943
2.8035882 0.24212627 -0.068871439 4287265129
2.7601962 0.22133113 -0.067183234 4287596937
2.392812 0.1623982 -0.053264879 4284372553
2.3428957 0.14458241 -0.051351577 4284174664
2.0474021 0.11379018 -0.04020939 4291871162
1.8224943 0.090119325 -0.031730823 4286217075
1.8230129 0.07893502 -0.031730823 4283651663
1.7994961 0.066862367 -0.03083045 4287401864
1.8038677 0.055942655 -0.030980512 4287926656
1.7712103 0.044060394 -0.029742494 4288583810
1.7015086 0.031896427 -0.027116388 4288516999
1.6806889 0.021195756 -0.026328556 4281672481
1.6697952 0.010814198 -0.025915883 4282000933
1.6758258 0.00056897925 -0.026140973 4282197285
1.6618079 -0.0096293902 -0.025615755 4282591532
1.6597191 -0.019801563 -0.025540724 4283642160
1.6605655 -0.030003319 -0.025578238 4286071611
1.668342 -0.040387113 -0.02587837 4287784020
1.7339857 -0.05263903 -0.028354406 4291275153
19.082705 -0.70038682 -0.68011594 4294703610
19.326645 -0.82811993 -0.68945736 4294440951
19.406038 -0.95084888 -0.69264621 4294901500
19.586426 -1.080198 -0.69966167 4294835960
19.796865 -1.2136925 -0.70784009 4293848288
19.936605 -1.3450997 -0.71339244 4294966769
20.100388 -1.4801019 -0.71988267 4291478451
20.246323 -1.6158124 -0.72573513 4293123274
20.486925 -1.7615895 -0.73518908 4291805871
20.658825 -1.9041411 -0.74209201 4287857524
20.91427 -2.0571845 -0.75218374 4279109376
21.158667 -2.2123935 -0.76190031 4281611827
21.333406 -2.363086 -0.76902831 4279113753
21.455475 -2.5099664 -0.77420551 4280625709
21.600338 -2.6613667 -0.78028303 4279901986
21.744579 -3.0864573 -0.78774869 4280164396
21.563721 -3.6026974 -0.78399712 4279572772
21.53854 -3.8707583 -0.78478491 4280756259
21.485893 -3.9975421 -0.78369695 4279571723
21.43643 -4.1245809 -0.78275907 4279901201
21.34897 -4.2437596 -0.78039557 4280757285
21.269669 -4.3638282 -0.77836972 4280494116
21.018267 -4.581728 -0.77082908 4279901478
20.814253 -4.671216 -0.76407623 4279835683
20.561253 -4.7471333 -0.75544763 4279441184
20.489929 -4.8632812 -0.75383443 4279835945
20.436401 -4.9832315 -0.75293404 4280098863
20.324982 -5.0883889 -0.74982023 4279769639
20.195625 -5.187892 -0.74603117 4279638055
20.11413 -5.298728 -0.74411786 4280163629
20.024319 -5.4066772 -0.74190438 4279834662
19.938757 -5.5150557 -0.73987854 4279900706
19.825701 -5.6149626 -0.73680228 4279703327
19.788958 -5.735949 -0.73672724 4279966499
19.675785 -5.8342505 -0.73368847 4279966240
19.608059 -5.9453006 -0.73245043 4279506201
19.535892 -6.0545549 -0.73106235 4279835932
19.4536 -6.1601319 -0.72929913 4279835932
19.109648 -6.4405637 -0.72029531 4279702808
19.035749 -6.5459981 -0.71894473 4279967000
18.975424 -6.6557298 -0.71815693 4278717713
18.917292 -6.7659774 -0.71748161 4278718233
18.844439 -6.8706284 -0.71624362 4279639844
18.770079 -6.9742913 -0.71496809 4278652690
18.688614 -7.0748248 -0.71342993 4280296745
18.599165 -7.1717458 -0.71159166 4278849815
18.513884 -7.2696614 -0.70994097 4280230702
18.410473 -7.3597536 -0.70757747 4280494644
18.352934 -7.4676833 -0.70708978 4279113500
18.279995 -7.5690675 -0.70600182 4279376682
18.229523 -7.6795368 -0.70585173 4279705649
18.152668 -7.7786508 -0.70465124 4279573550
18.071617 -7.875514 -0.70330065 4279375908
18.004681 -7.9781542 -0.70255035 4279376159
17.938078 -8.0806808 -0.70183754 4279705124
17.872711 -8.1835222 -0.70119977 4279901484
17.810385 -8.2875519 -0.70071208 4279901224
17.732098 -8.3838634 -0.69958663 4279967522
17.677618 -8.49121 -0.6994741 4280296737
17.649433 -8.6113491 -0.70048702 4280099104
17.507298 -9.0805445 -0.70363832 4280888620
17.377859 -9.1491547 -0.70052451 4280756269
17.185667 -9.1830816 -0.69474709 4280230190
17.111427 -9.2788315 -0.69399679 4279968309
16.95524 -9.3292122 -0.68975747 4279968566
16.836601 -9.3989754 -0.6871314 4279244583
16.76557 -9.4947186 -0.68656862 4280165428
16.702663 -9.5949221 -0.68638104 4280757565
16.621027 -9.6841478 -0.68540567 4280823358
16.559572 -9.7849321 -0.68533063 4280034856
16.485506 -9.8781376 -0.68473035 4282138414
15.762741 6.8839598 -0.82533425 4281808169
15.776235 6.7748933 -0.82378203 4281412646
15.795426 6.6686397 -0.8225804 4281609258
15.821288 6.5654697 -0.82177925 4289438876
15.854801 6.4656277 -0.82142878 4291215536
15.9053 6.3726816 -0.82202959 4290162589
15.973842 6.286675 -0.82363182 4288844935
16.077324 6.2137504 -0.82713675 4290817947
16.131023 6.1210093 -0.82798791 4292790962
15.329699 5.7095208 -0.78312522 4293779137
15.315666 5.5975208 -0.78052157 4294702296
15.271693 5.4754572 -0.77636576 4286742895
15.267316 5.3683944 -0.77436298 4290428081
15.284862 5.2694054 -0.77356184 4289303671
15.219451 5.1425824 -0.7684046 4290355583
15.131256 5.0095406 -0.76209581 4289238640
15.112309 4.9005785 -0.75949216 4290359433
15.093547 4.7923412 -0.75693858 4288188011
15.072121 4.6839261 -0.75428492 4286478434
15.029867 4.5698524 -0.75057971 4288781189
15.017418 4.4655857 -0.74847674 4289240457
15.004256 4.3616443 -0.74637383 4293385157
14.963487 4.2503896 -0.7428689 4294965474
14.944053 4.1459432 -0.74051565 4294503636
14.925831 4.0424175 -0.73826247 4293581504
14.885659 3.9336572 -0.73490781 4293120429
14.850521 3.8270388 -0.73185354 4293120168
14.828197 3.7244072 -0.72950023 4292659363
14.812937 3.6240933 -0.72754753 4292857257
13.938151 3.3194897 -0.68133289 4293710259
14.731757 3.4131784 -0.72113854 4293841329
14.700783 3.3110869 -0.71848482 4293643950
14.665211 3.2086501 -0.71563083 4293644980
14.647498 3.1107187 -0.71372819 4294962126
14.605662 3.0082884 -0.71062386 4289500280
4.6955199 0.93631452 -0.20306419 4287923307
14.564011 2.8138545 -0.70666832 4294302656
14.591803 2.7264571 -0.70721906 4294038455
14.549286 2.6262226 -0.70421487 4294103220
14.550367 2.5343287 -0.70346385 4294299576
14.616861 2.4536033 -0.7060675 4294364599
14.701644 2.3751848 -0.70962244 4294827721
14.766272 2.2927516 -0.71217602 4292856242
14.910456 2.2215424 -0.71878523 4292068016
15.070186 2.0566425 -0.72554469 4292333247
15.166703 1.9751043 -0.72980064 4294241763
15.228095 1.8881544 -0.73230416 4294505707
3.6403217 0.42780599 -0.14678551 4291213210
3.7738986 0.42008677 -0.15339476 4294303422
15.834364 1.6680552 -0.7612446 4279438607
15.989405 1.585263 -0.76855487 4281807668
16.096287 1.4961901 -0.7734617 4285163627
16.200684 1.4056919 -0.7782684 4285754996
16.173166 1.303369 -0.77646589 4284306519
2.4820616 0.18370727 -0.087803043 4288321675
2.3685534 0.16064535 -0.082044996 4281215518
2.3306184 0.14369266 -0.080092266 4285163611
1.8174927 0.089423828 -0.054256141 4284108870
1.8010447 0.077528968 -0.05340495 4285427298
1.8064766 0.066663906 -0.053655304 4287336067
1.8058534 0.055546965 -0.053605236 4287927687
1.7542422 0.043153487 -0.051001593 4289178003
1.6935614 0.031223593 -0.047947325 4288583307
1.6767439 0.020610929 -0.047096133 4282067241
1.6678505 0.010260609 -0.0466455 4281935653
1.6578944 1.9488274e-05 -0.046144798 4282197285
1.6538686 -0.010131525 -0.045944519 4282328358
1.6497804 -0.020233132 -0.04574424 4283510063
1.6516223 -0.030390941 -0.045844384 4286005309
1.6633863 -0.040810034 -0.046445221 4288374107
19.143398 -0.69246745 -0.92337132 4290820518
19.246559 -0.81447005 -0.92877883 4291281070
19.410786 -0.94075829 -0.93729073 4288255372
19.552244 -1.0678953 -0.94470114 4292400077
19.733738 -1.199285 -0.95416433 4294571248
19.908373 -1.3325418 -0.96332711 4294572278
20.161795 -1.4738067 -0.97649556 4294638581
20.353487 -1.6134204 -0.98660976 4294835958
20.548199 -1.7557811 -0.9969241 4294835958
20.67827 -1.8947625 -1.004034 4294441715
20.919729 -2.0463867 -1.0168018 4286743158
21.032938 -2.1878254 -1.0231607 4284308819
21.220644 -2.3390417 -1.033325 4281151014
21.426126 -2.494837 -1.0444405 4280953648
21.61203 -3.7352085 -1.0625658 4280558115
21.571989 -3.8647535 -1.0617146 4280622881
21.535105 -3.9946766 -1.0610638 4280557088
21.449375 -4.1150746 -1.0579594 4280294175
21.324852 -4.3631706 -1.0542542 4280295458
21.185299 -4.4702282 -1.0484961 4280295458
21.088177 -4.5850725 -1.0449412 4280360738
21.046001 -4.7113276 -1.0442402 4280294694
21.03227 -4.8439598 -1.0450413 4280032294
19.307137 -5.5851221 -0.97063738 4279967780
19.238985 -5.6935658 -0.96888489 4279573022
19.175009 -5.8028297 -0.96738285 4279441178
18.965151 -6.1225843 -0.96212548 4279835418
18.052999 -7.8559823 -0.95005858 4280032811
17.874454 -8.1728296 -0.94835621 4279769888
17.806759 -8.2743559 -0.94740492 4280033060
17.78583 -8.5315514 -0.95196128 4280823081
17.732246 -8.6400862 -0.95191121 4280099358
17.684271 -8.7513828 -0.95221162 4280033311
17.486488 -9.0579567 -0.95030898 4281612343
17.403175 -9.1506729 -0.94875681 4281218100
17.33877 -9.2530537 -0.94830614 4280954675
17.253565 -9.3440504 -0.94670391 4280428851
17.1784 -9.4401207 -0.94570249 4280889149
17.071301 -9.5181141 -0.94289857 4282271315
15.778859 6.8779535 -1.0337074 4280490002
15.807921 6.7755027 -1.032838 4280951064
15.83724 6.6733418 -1.0320308 4281806628
15.853914 6.5661116 -1.0304164 4283188279
15.858775 6.4544139 -1.0280569 4282202413
15.869351 6.3454976 -1.0261319 4285294936
15.762136 6.1907248 -1.0163832 4286412900
15.808206 6.097126 -1.016942 4284965454
15.936793 6.0346494 -1.0230272 4286675821
15.980069 5.9391832 -1.0234618 4289571483
15.974954 5.825974 -1.0207298 4291545281
