# .PCD v0.7 - Point Cloud Data file format
VERSION 0.7
FIELDS x y z rgb
SIZE 4 4 4 4
TYPE F F F U
COUNT 1 1 1 1
WIDTH 1102
HEIGHT 1
VIEWPOINT 0 0 0 1 0 0 0
POINTS 1102
DATA ascii
5.9583926 1.0737457 -0.86306345 4286080353
5.9424567 1.033264 -0.85967571 4285027922
5.9652677 0.99956447 -0.8621797 4285093456
5.9810529 0.96451992 -0.86365259 4281080336
6.0650501 0.93993586 -0.87543595 4280686867
6.095161 0.90634537 -0.8791182 4278649093
5.7578936 0.82004869 -0.82756615 4283453019
5.7304764 0.78029311 -0.82270557 4287467671
6.0362692 0.78429979 -0.86792403 4278585877
6.0812125 0.75223321 -0.873963 4280428860
6.1171484 0.71860415 -0.87867635 4281416267
5.7813215 0.64315003 -0.82771349 4281483580
5.7438455 0.60331655 -0.82152724 4280102456
6.0870147 0.60169387 -0.87234282 4281417813
6.1378651 0.56872267 -0.87941283 4286877338
6.1432095 0.53122151 -0.8797074 4282207580
6.135509 0.49264458 -0.87808716 4282670198
6.105866 0.4525696 -0.87322658 4282475137
6.1213565 0.41597044 -0.87514132 4282343804
6.100101 0.37693411 -0.87160635 4283525485
6.1092114 0.33988342 -0.87263739 4291872949
6.1052547 0.30209717 -0.87175363 4287069286
6.1020527 0.26441529 -0.87101716 4292067490
1.8306947 0.067256168 -0.23427585 4289304459
1.7984489 0.055002946 -0.22941524 4284565045
1.8214943 0.044537533 -0.23280293 4285945666
1.7871214 0.03270413 -0.22764775 4286405191
1.7299256 0.021002669 -0.21910483 4286470730
1.7023281 0.010202614 -0.21498066 4283381810
1.6895003 -0.00024987932 -0.21306586 4281410079
1.6993577 -0.010671749 -0.21453878 4281674799
1.6933261 -0.021029023 -0.21365505 4281739818
1.6862428 -0.031295016 -0.21262401 4282069296
1.675142 -0.041379936 -0.2110038 4281805866
1.676834 -0.05171724 -0.21129838 4281936682
5.9461021 -0.25347432 -0.84774512 4284113257
5.7596922 -0.28097937 -0.82020158 4286216066
6.0304418 -0.33123395 -0.86085409 4286740609
5.7913523 -0.35380259 -0.82550406 4284965480
5.916379 -0.39786693 -0.84450471 4284571492
5.9522982 -0.4369784 -0.85024905 4284637285
5.9140096 -0.47067487 -0.84494656 4285229418
5.9228363 -0.50796556 -0.84671408 4286545532
6.0023441 -0.55188888 -0.85908657 4290428089
6.0569234 -0.59439641 -0.86777675 4288126615
6.0511947 -0.63134491 -0.86748219 4289575854
6.0501561 -0.66878796 -0.86792403 4294637803
5.9919043 -0.6996001 -0.85982305 4282464303
4.7299147 -0.58194065 -0.67114258 4281871655
4.6615114 -0.60259885 -0.6614213 4282398514
4.6616473 -0.63172036 -0.66201049 4282068783
4.6459312 -0.65864867 -0.66024297 4287727496
4.6290822 -0.68526345 -0.65832818 4279766541
4.5847101 -0.70747954 -0.65228921 4281608745
4.552938 -0.73121291 -0.64816505 4281279779
4.5259256 -0.75539607 -0.64477736 4281542952
4.50951 -0.78112954 -0.64300984 4281675051
4.5192361 -0.81140286 -0.64521927 4282266667
4.7057514 -0.87467819 -0.6742357 4278914062
5.7969556 -1.1140679 -0.84052783 4280425761
5.7832193 -1.1482694 -0.83949679 4289043076
5.7770338 -1.1839312 -0.83964407 4285158461
5.7996612 -1.2256904 -0.84421015 4286406738
5.7823668 -1.2591506 -0.8427372 4289959820
5.8015566 -1.3006601 -0.84686136 4287592554
5.7655153 -1.3297923 -0.84258991 4291869346
5.7418485 -1.3614956 -0.84023327 4291671967
5.7420359 -1.3988066 -0.84155887 4291604892
5.7400618 -1.4356912 -0.84258991 4290223500
5.7206054 -1.468182 -0.84096968 4289569941
3.9711454 1.151734 -0.6279999 4294372846
3.8527546 1.0918269 -0.60698658 4284963663
3.9944949 1.1055478 -0.62959182 4287857005
4.1594181 1.1237466 -0.65601772 4282332470
4.1041818 1.0818529 -0.64567024 4285886070
4.1709828 1.0721282 -0.65569931 4286611582
4.8598232 1.0913743 -0.76442748 4282002214
4.9860363 1.0876153 -0.78416729 4285752425
5.0186944 1.06252 -0.78846544 4284043095
5.674037 1.1648839 -0.89528328 4286278260
5.7517633 1.144102 -0.90690434 4286672246
5.7024465 1.097966 -0.89767116 4284502610
5.7333403 1.0674717 -0.90165097 4285884003
5.733953 1.0312244 -0.9006958 4284764491
5.7460084 0.99703443 -0.90165097 4286146656
5.7403336 0.95980585 -0.8997407 4286868839
5.7275949 0.92158723 -0.896716 4286606948
5.7272873 0.88552123 -0.89576089 4286080864
5.7179651 0.84819067 -0.89337301 4286871927
5.6087003 0.79685032 -0.87474751 4281279782
5.6653328 0.76945931 -0.88318473 4287399291
3.5688603 0.46258011 -0.54155868 4280692536
5.7380381 0.70773011 -0.89353222 4282727738
5.7422724 0.67250884 -0.89353222 4283912782
5.6216736 0.6234507 -0.8733148 4282730048
5.6695781 0.59356785 -0.88047844 4281874229
5.7055364 0.56195998 -0.88573176 4285489502
5.7305045 0.52893573 -0.88923401 4283581499
5.7365928 0.49401793 -0.88971156 4284502350
5.7385316 0.45873097 -0.88955241 4284963677
5.7402539 0.42343882 -0.88939321 4284898145
5.7230444 0.38687891 -0.88620937 4285753703
5.7203836 0.35145333 -0.88541341 4285421643
5.7362328 0.31710908 -0.88764209 4286863946
5.73314 0.28166437 -0.88684613 4283114276
5.7377186 0.24660815 -0.88732368 4281734932
1.8233843 0.067428909 -0.25549063 4287930275
1.816856 0.056028031 -0.25437626 4280751110
1.8329568 0.045265574 -0.25692335 4285025853
1.8174068 0.033728193 -0.25437626 4285421116
1.7326826 0.021539822 -0.24068578 4285947462
1.698229 0.01069812 -0.23511405 4282986789
1.6943139 0.00027804027 -0.2344773 4281344286
1.6972454 -0.010136446 -0.23495488 4281412397
1.7030741 -0.020623432 -0.23591001 4281609258
1.6979803 -0.030981731 -0.23511405 4281937448
1.6957841 -0.041351169 -0.23479567 4281740584
1.7033927 -0.051998314 -0.23606922 4281476648
5.7288432 -0.24619997 -0.88589096 4285751377
5.7094755 -0.28047377 -0.88302553 4285683275
5.70469 -0.31533745 -0.88254791 4285879891
5.6849108 -0.349244 -0.87968248 4289697938
5.6560664 -0.38231987 -0.87538427 4290421659
5.6831512 -0.41919839 -0.88016003 4286473050
5.6962171 -0.45532134 -0.88270712 4287788902
5.6874146 -0.48975548 -0.88175195 4288051813
5.6774211 -0.52400798 -0.88063765 4288840299
5.6917839 -0.56057709 -0.88350308 4289366124
5.6754723 -0.59415352 -0.88143361 4289168486
5.6933069 -0.63136178 -0.8849358 4288510313
5.6667738 -0.66364062 -0.8812744 4282063895
5.6145835 -0.69247401 -0.873474 4281606429
4.7143941 -0.61077642 -0.7278133 4282199077
4.7007751 -0.63836265 -0.72622138 4282331690
4.6742887 -0.66399866 -0.72255999 4281936932
4.6584082 -0.69092798 -0.72064966 4281806373
4.6248116 -0.71497101 -0.7158739 4282135338
4.5852485 -0.73768657 -0.71014303 4281807141
4.5835571 -0.76629597 -0.71062058 4282069288
4.5466695 -0.78883386 -0.70536727 4282790962
4.5718651 -0.82213593 -0.71030217 4283121197
4.6967888 -0.87439597 -0.7316339 4284040767
5.6365285 -1.0852513 -0.88684613 4281931531
5.6404147 -1.1219354 -0.88859725 4290088561
5.6401935 -1.1579134 -0.88971156 4290482806
5.6233244 -1.1904539 -0.88811964 4291075723
5.6110911 -1.2238833 -0.88732368 4281340424
4.9937415 -1.1213269 -0.78655517 4292920764
5.5898786 -1.2913142 -0.88636857 4291600782
5.5847316 -1.3262732 -0.88684613 4289495917
5.6071796 -1.3680056 -0.8919403 4289891709
5.5862312 -1.3992655 -0.88987076 4289367419
5.5689344 -1.4313034 -0.88843805 4286342487
5.5762758 -1.4697253 -0.89114434 4289833121
3.68027 1.0920495 -0.62693506 4290690489
3.6954172 1.0719203 -0.62847316 4281608994
4.0772805 1.1557345 -0.69614851 4286017640
4.1270227 1.1425363 -0.70383894 4283318074
4.1444173 1.1200223 -0.70571882 4287857801
4.1302533 1.0890393 -0.70195907 4284703587
4.0557523 1.0427983 -0.68743277 4282599749
4.6455507 1.1038653 -0.78928763 4285886830
4.7175112 1.0904446 -0.80090863 4282923569
5.0461383 1.1339164 -0.8581593 4281146137
5.0453 1.1012499 -0.85679209 4284832594
5.0577455 1.0714984 -0.85781747 4280817942
5.6085334 1.1524009 -0.95420361 4286078561
5.6270938 1.1202767 -0.95625436 4282919468
5.6261225 1.0842352 -0.95488721 4283906101
5.6307321 1.0493321 -0.95454544 4284696637
5.6409431 1.015462 -0.95522898 4285156928
5.6344485 0.97863621 -0.95300734 4285353797
5.6257715 0.94160271 -0.95044386 4285024831
5.6226883 0.90565401 -0.94890583 4284696370
5.6145086 0.8690241 -0.94651324 4284631099
5.6109633 0.83325332 -0.94497514 4280619282
5.6101184 0.79797572 -0.94394976 4290555055
3.5412984 0.48112428 -0.58096367 4288976534
5.6253505 0.72983265 -0.94497514 4283709482
5.6170111 0.6937297 -0.94275349 4284303415
5.6064835 0.65752673 -0.94019002 4282132509
5.6015992 0.62213302 -0.93865198 4281934109
5.6053114 0.58775055 -0.93865198 4281407767
5.5921435 0.55169803 -0.93574667 4286736220
5.5914989 0.51701117 -0.93506312 4286276172
5.6240149 0.4852396 -0.94019002 4286869079
5.635725 0.45143202 -0.94172812 4286932314
5.6177549 0.41531357 -0.93813926 4286339912
5.6123328 0.38030136 -0.93677211 4286930762
5.5978427 0.34482425 -0.9338668 4285021997
5.5939507 0.31014153 -0.93284142 4284560164
5.5937805 0.27571446 -0.93249965 4284757293
5.5894608 0.24113044 -0.93147427 4284694321
1.8089567 0.066130236 -0.27505732 4287263837
1.8241007 0.055488274 -0.27762076 4280882179
1.8342568 0.044540212 -0.27932975 4282854953
1.7931205 0.032507535 -0.27215207 4282197023
1.7223512 0.020607678 -0.25984743 4285421130
1.7194893 0.01001991 -0.25933474 4283118887
1.6909451 -0.00054146582 -0.25437874 4281410077
1.6948512 -0.010939621 -0.25506231 4281543211
1.689826 -0.021280197 -0.25420782 4281805866
1.6945894 -0.031737227 -0.25506231 4281937450
1.6835276 -0.041872472 -0.25318244 4281805864
1.6960421 -0.05258977 -0.25540411 4281542692
5.5688658 -0.23843864 -0.92788541 4285092167
5.575171 -0.2729879 -0.92925262 4285090886
5.5871644 -0.30794764 -0.93164515 4287523687
5.6018887 -0.34324494 -0.9345504 4284167474
5.5829654 -0.37648758 -0.93164515 4286209357
5.5746536 -0.41030419 -0.93061978 4282919455
5.5759602 -0.44481447 -0.93130338 4284563254
5.5849061 -0.48002961 -0.93335414 4285219641
5.5789123 -0.5140183 -0.93284142 4285942846
5.6070313 -0.55131894 -0.93831015 4281930502
5.5927639 -0.58458823 -0.93643028 4282588426
4.9965787 -0.55341005 -0.83303738 4285351732
4.9079475 -0.57411885 -0.8181693 4285220156
4.8642373 -0.59929246 -0.81116247 4294962665
4.8008614 -0.62142658 -0.80073774 4283843389
4.6944389 -0.63698739 -0.78279352 4282989360
4.6728821 -0.66329187 -0.77971739 4282924596
4.6589775 -0.6905095 -0.7780084 4283514423
4.646863 -0.71788192 -0.77664119 4282792240
4.6190224 -0.74263316 -0.77253968 4282201899
4.6114631 -0.77047467 -0.77202702 4282529068
4.6095614 -0.79925978 -0.77253968 4281935391
4.621057 -0.83048719 -0.77544492 4281739044
4.6924028 -0.87304485 -0.78894585 4285095516
5.6119699 -1.0795679 -0.95232373 4281213727
5.6207032 -1.117052 -0.9550581 4282002214
5.619535 -1.1527056 -0.95608348 4281802273
5.6171765 -1.1881832 -0.95693797 4281933859
5.6203694 -1.2249329 -0.95881784 4280555029
5.6127477 -1.259396 -0.95881784 4280687642
5.6039548 -1.2935899 -0.95864695 4280291347
5.5757794 -1.3231775 -0.9550581 4291078562
5.524477 -1.3468716 -0.94736773 4292191884
5.4472876 -1.3635322 -0.93506312 4290153588
5.4073243 -1.3888483 -0.92942351 4289695355
5.4091821 -1.4247593 -0.93130338 4288974205
5.3889227 -1.4548433 -0.92925262 4289107593
5.3590012 -1.4821082 -0.92549288 4286740848
4.0661235 -1.1517396 -0.69409776 4285226833
4.0637121 -1.1780375 -0.69495225 4284368957
4.0252318 -1.1937139 -0.68931264 4285486155
4.0385771 -1.2246745 -0.69307238 4280028683
3.9651024 -1.2290306 -0.68110955 4289967029
3.972517 -1.2580922 -0.68384391 4288785835
3.5203605 1.0687125 -0.6460619 4290028958
3.5852847 1.0644335 -0.65741372 4284896854
4.1343613 1.1723782 -0.76122773 4287728006
4.1282125 1.1433159 -0.75866443 4281148447
4.1351504 1.1179641 -0.75866443 4284569942
4.1514382 1.0950769 -0.76049536 4283387725
4.1599832 1.0700731 -0.76086152 4283782744
4.5806108 1.1184858 -0.83904248 4288122254
5.3879509 1.2805724 -0.99229175 4287199345
5.2271266 1.2085249 -0.96006727 4281804057
5.0761781 1.1408713 -0.92985684 4281475618
5.0946083 1.1122183 -0.93205398 4285358168
5.1022987 1.0811411 -0.93223703 4279896836
5.5537372 1.141202 -1.0168263 4281078800
5.5760622 1.1101737 -1.0197558 4280619280
5.597249 1.0787286 -1.0225022 4280554516
5.6085954 1.0452644 -1.0234177 4280816919
5.6371565 1.0148356 -1.0276288 4280487956
5.654901 0.98224574 -1.0298259 4280488983
5.7073627 0.95531654 -1.0386144 4280556583
5.7063231 0.91918492 -1.0373328 4280230449
5.7069979 0.88340265 -1.0364174 4279310370
5.709394 0.84793544 -1.035868 4290034879
5.6901565 0.80942762 -1.0312907 4279309598
5.7067056 0.77608722 -1.0334878 4280296496
5.7094107 0.74080402 -1.0331216 4280493110
5.7021399 0.7043125 -1.0309246 4280493625
5.7122121 0.66999829 -1.0320231 4281019714
5.6986289 0.6329838 -1.0287274 4279769638
5.7033825 0.59810823 -1.0289105 4288189338
5.7089019 0.56329465 -1.0292767 4280821557
5.7014828 0.52725977 -1.0272627 4280493113
5.6908984 0.49108386 -1.0246993 4280493364
5.7192831 0.45819542 -1.0294597 4280490776
5.7004175 0.4215005 -1.0254318 4286209618
5.6940689 0.38591775 -1.0237839 4282984219
5.690443 0.35060999 -1.0226853 4280026368
1.8623188 0.10353862 -0.30825442 4291149494
1.8717562 0.092544794 -0.30990225 4284827452
1.8722887 0.081058174 -0.30990225 4280685324
1.8442606 0.068516031 -0.30459255 4280879873
1.813202 0.056230135 -0.29873353 4291142536
1.8243237 0.045370046 -0.30074757 4292195991
1.8206359 0.034102544 -0.30001521 4291341711
1.767728 0.022273436 -0.29012814 4285026623
1.7412882 0.01126068 -0.28518462 4282527529
1.7246119 0.000574301 -0.28207204 4281673251
1.7147522 -0.0099484809 -0.2802411 4281608487
1.7018795 -0.020314375 -0.27786088 4281740582
1.6918936 -0.030576646 -0.27602994 4282003494
1.6877428 -0.040861256 -0.27529758 4281871141
1.6835299 -0.051096089 -0.27456519 4281345826
5.6970005 -0.24383597 -1.0228684 4280953145
5.6973605 -0.27888379 -1.0232346 4284572013
5.6425362 -0.31091249 -1.0133475 4285427058
5.6768279 -0.34775516 -1.0201221 4282861122
5.6549706 -0.38125703 -1.0164602 4286215537
5.6731133 -0.41746458 -1.020305 4286743681
5.6831856 -0.45328328 -1.0226853 4285889149
5.672461 -0.48747218 -1.0212206 4286020478
5.6674056 -0.52208811 -1.0208544 4285689969
5.6680088 -0.5572378 -1.0215868 4283913809
5.6625276 -0.59180105 -1.0212206 4285822830
5.6734467 -0.62815827 -1.0239669 4285956223
5.6851082 -0.6647861 -1.0268965 4281219654
5.6838493 -0.70001739 -1.0274458 4280954425
4.7629857 -0.61623323 -0.8553378 4281408788
4.7094316 -0.6387046 -0.84600002 4287657055
4.6937447 -0.66593105 -0.84380287 4280749575
4.6817904 -0.69356573 -0.84233814 4280422155
4.6842475 -0.72333026 -0.84361982 4280226062
4.6738973 -0.75112224 -0.84252125 4280885534
4.6468983 -0.7760601 -0.83831006 4280951844
4.6217079 -0.80103117 -0.83446515 4280162843
4.5644555 -0.8199833 -0.82457805 4280623140
4.5303431 -0.84257966 -0.81908524 4283057733
4.5115728 -0.86776072 -0.81652194 4283319875
4.4994135 -0.89408511 -0.81524032 4285359199
4.4861388 -0.92009526 -0.81377554 4281938222
5.6355324 -1.1920143 -1.0336709 4285424988
5.5339799 -1.2060494 -1.0157278 4283910464
5.5101681 -1.2363225 -1.0126152 4289107339
5.4670372 -1.2619256 -1.0058407 4289044371
5.3195395 -1.262298 -0.97910899 4288713864
5.310739 -1.2946813 -0.97892588 4282326553
5.246429 -1.3131558 -0.96812338 4289497475
5.0440288 -1.2954209 -0.9307723 4286804578
5.0673571 -1.3346111 -0.93681437 4285883734
5.0135159 -1.3533771 -0.9280259 4285685844
4.0708694 -1.1256826 -0.74749571 4285817689
4.0478058 -1.1460853 -0.7443831 4285293406
4.0350318 -1.1692585 -0.74328452 4284567371
4.0277815 -1.1939948 -0.74328452 4280228626
3.9808664 -1.2067049 -0.73559463 4286746501
3.4072762 1.0808882 -0.66978222 4294043631
3.4260211 1.0637462 -0.67231172 4284701007
4.1165791 1.1957768 -0.81104493 4286150257
4.116766 1.1412355 -0.80812627 4283910473
4.1606145 1.1259571 -0.81571478 4285885549
4.1636515 1.0994042 -0.81493646 4285361517
4.1646199 1.0723667 -0.81376898 4282990911
4.389925 1.1017678 -0.85852164 4285093969
5.2855353 1.2923675 -1.0400618 4284104250
5.2189393 1.2421799 -1.0248848 4282659366
5.2895298 1.2247509 -1.0377269 4282331428
5.0797291 1.14333 -0.99355793 4282790700
5.190135 1.1347904 -1.0145723 4284236864
5.4032869 1.1467493 -1.0564063 4282130461
5.4332786 1.1183246 -1.061076 4282196254
5.4294572 1.0828531 -1.0589358 4282591265
5.4379249 1.0498904 -1.0593249 4282460973
5.4895816 1.0249753 -1.06847 4281410853
5.6531072 1.0196861 -1.100186 4280163370
5.6737523 0.98750591 -1.1031046 4280034614
5.6951818 0.95527321 -1.1062179 4279903804
5.7173977 0.92297107 -1.1095257 4280364359
5.720046 0.88742065 -1.1089419 4280494413
5.7156816 0.85086006 -1.1069962 4281546828
5.7246785 0.81632799 -1.1077745 4280036421
5.7169456 0.7794615 -1.105245 4279841099
5.7206483 0.7442416 -1.1050504 4279841101
5.7202396 0.70852244 -1.1040776 4279906640
5.7166862 0.67249197 -1.1025209 4280234827
5.720705 0.63740242 -1.1025209 4286283145
5.7186556 0.60167187 -1.1013534 4279246375
5.7193108 0.56628096 -1.1007698 4279841612
5.7138882 0.53035957 -1.0990186 4280104271
5.7277842 0.4962233 -1.1011589 4278193437
5.7111669 0.45949167 -1.0972674 4286283908
5.7011619 0.42349273 -1.0947379 4286543722
5.6958251 0.38796818 -1.0931813 4281670163
5.7029929 0.35331625 -1.0941541 4283184176
1.8454242 0.10217094 -0.32732713 4292983969
1.8332809 0.09021084 -0.32479763 4285745207
1.8289 0.078746229 -0.32382476 4283180571
1.8195468 0.067154728 -0.321879 4283843380
1.8061988 0.055557817 -0.31915492 4285027655
1.7888556 0.044028133 -0.31565255 4283118888
1.7596707 0.032488268 -0.30981523 4282393882
1.754933 0.021626802 -0.30884236 4283051554
1.7354153 0.010723834 -0.3049508 4282460706
1.7187735 6.3318061e-05 -0.30164301 4281672733
1.7079517 -0.010424442 -0.29950267 4281739555
1.7009901 -0.020824725 -0.29814062 4281674537
1.6920036 -0.031105272 -0.29638943 4281871916
1.6888391 -0.041416526 -0.29580569 4281477418
1.6905141 -0.051837031 -0.29619485 4281345060
5.714663 -0.2426576 -1.0953215 4280428598
5.6944513 -0.27681649 -1.0916246 4279835432
5.6446533 -0.30913344 -1.0820904 4285624440
5.6876884 -0.346497 -1.0910408 4285491563
5.6423922 -0.37850964 -1.0824795 4284900966
5.6546378 -0.41419542 -1.0853982 4285427823
5.6852365 -0.45151728 -1.0920137 4286216826
5.6804042 -0.48622584 -1.0916246 4286282619
5.6802435 -0.52133936 -1.0922084 4286348412
5.6798668 -0.5564692 -1.092792 4286282617
5.6743937 -0.59110683 -1.0924029 4286348153
5.6696854 -0.62580574 -1.0922084 4287467930
5.6842508 -0.66273695 -1.0959053 4281154125
5.6898131 -0.69879615 -1.097851 4281942863
4.7232738 -0.60973197 -0.90541464 4286608502
4.7068062 -0.6369949 -0.90288514 4283184431
4.6979532 -0.66517699 -0.90191227 4281212700
4.6869912 -0.69298792 -0.90055025 4280097826
5.706418 -0.87926668 -1.1060233 4283717731
4.6839452 -0.75138307 -0.90171772 4280622629
4.6792464 -0.78010917 -0.90171772 4280884770
4.5854478 -0.79344189 -0.88381666 4285292903
4.4762163 -0.80288672 -0.86280233 4283321673
4.4577036 -0.82783335 -0.86007828 4281479203
4.5170827 -0.86754864 -0.87311494 4282530862
4.5068641 -0.89429528 -0.87214202 4281345564
4.4820724 -0.9180007 -0.86825049 4281018142
4.4542804 -0.94082826 -0.86377525 4281544743
4.4311709 -0.96439129 -0.86027282 4281742122
4.4069824 -0.98749197 -0.85657591 4281084964
4.3884144 -1.0116528 -0.8540464 4280031504
4.3668523 -1.0349454 -0.85093319 4279240450
4.3232489 -1.0526799 -0.84334469 4286014306
4.3043365 -1.0760976 -0.84081519 4290094755
4.3043041 -1.1041926 -0.84217721 4287923582
5.2195597 -1.3729135 -1.0313058 4291934898
5.222403 -1.4079757 -1.0336407 4292591027
5.2165017 -1.440776 -1.0342245 4282853398
4.1107225 -1.1628151 -0.80812627 4285882186
4.0922031 -1.1847459 -0.80579138 4283383600
4.0886188 -1.210946 -0.8065697 4280230163
3.3003137 1.0686647 -0.69215733 4290950826
3.3124053 1.0501678 -0.69339556 4282594861
4.1303086 1.1986578 -0.86757606 4285756016
4.1149926 1.1668876 -0.86262304 4286940288
4.131505 1.1442274 -0.86468679 4285491814
4.1592288 1.1244715 -0.86922705 4287333500
4.1972728 1.1071627 -0.87603742 4286280810
4.1556568 1.0689607 -0.86551231 4286938742
5.3010859 1.3288656 -1.1131623 4283451202
5.201726 1.270095 -1.0898418 4282264618
5.2474999 1.2472012 -1.0980968 4283053364
5.2407537 1.2116747 -1.0950012 4282527018
5.1020246 1.1466784 -1.0634259 4283711543
5.239933 1.1439332 -1.0916992 4283250214
5.2602549 1.1145986 -1.0945885 4283775268
5.2737036 1.0836797 -1.0960331 4283907113
5.2984872 1.0549294 -1.0999542 4283908655
5.4989433 1.0597893 -1.141642 4281478701
5.5659432 1.0373185 -1.1546437 4280165695
5.5837593 1.0052265 -1.1571201 4279971141
5.6177797 0.97580045 -1.163105 4279972168
5.6419973 0.94437993 -1.1670262 4279772485
5.6592784 0.91161001 -1.1695026 4289904332
5.6928077 0.88120699 -1.1754875 4278918180
5.7271428 0.85057038 -1.1816788 4279907154
5.7361293 0.81596416 -1.1825043 4279841624
5.7410278 0.78075254 -1.1825043 4279972182
5.7447405 0.74538577 -1.1822978 4279512146
5.7424078 0.70928353 -1.1808532 4280104022
5.7456803 0.67392147 -1.1806469 4282798437
5.7448444 0.63811415 -1.179615 4280560956
5.7418394 0.60213858 -1.1781704 4280431187
5.7259512 0.56497568 -1.1740429 4279645013
5.7312584 0.53001136 -1.1744556 4280234836
5.7538996 0.49651617 -1.1785831 4278324515
5.7148986 0.45784441 -1.169709 4289436069
5.7029624 0.4216885 -1.1666133 4282652960
1.8414932 0.12506981 -0.34978122 4286931534
1.8432026 0.11382838 -0.3499876 4284432427
1.8487512 0.10278713 -0.35101947 4281802517
1.8405516 0.091008395 -0.3491621 4283641381
1.8410754 0.07971327 -0.3491621 4283772708
1.8180624 0.067548238 -0.3442091 4284826677
1.8203987 0.056451786 -0.34462184 4284366377
1.821689 0.045305084 -0.34482822 4284035102
1.835629 0.034380198 -0.34771746 4285613619
1.7526416 0.022086645 -0.33017561 4283973169
1.7214335 0.011136685 -0.32357159 4282923569
1.7224479 0.00057406491 -0.32377797 4281476897
1.7106775 -0.0099239238 -0.32130149 4281673508
1.7056924 -0.020360753 -0.32026961 4281936423
1.6967306 -0.030665169 -0.31841221 4282001446
1.693576 -0.041003816 -0.3177931 4281542690
1.6884024 -0.05124509 -0.31676123 4281213986
1.6773002 -0.061208982 -0.31449109 4281082401
5.7504492 -0.24612722 -1.1744556 4280887332
5.7204885 -0.28001744 -1.1684707 4280689955
5.6795835 -0.31295639 -1.1602157 4285624430
5.6990423 -0.34911746 -1.1647561 4283979864
5.6284552 -0.37946758 -1.1503098 4286282619
5.6318755 -0.41442722 -1.151548 4286677377
5.6965275 -0.45434833 -1.1657879 4286216826
5.7004561 -0.48987994 -1.1672325 4286282619
5.6885738 -0.52403963 -1.1653751 4286348412
5.6901207 -0.55941319 -1.166407 4285888120
5.6933932 -0.59502906 -1.1678517 4287467402
5.6838002 -0.62930536 -1.1666133 4288717219
5.6914935 -0.66553319 -1.1690899 4280493362
5.7057538 -0.70271665 -1.1730111 4281088846
5.7255945 -0.74085391 -1.1781704 4280299845
5.7199707 -0.77584004 -1.177964 4281285447
5.7267284 -0.81257278 -1.1804405 4284440928
4.7063093 -0.69719994 -0.96395314 4283192406
5.7143912 -0.88248861 -1.1800277 4289108638
5.7281899 -0.92064148 -1.1841552 4288382076
4.8084903 -0.80306053 -0.98871815 4282725669
4.765873 -0.82602984 -0.9806695 4282924331
4.7684188 -0.85664195 -0.98232055 4282726186
4.784236 -0.88982213 -0.98686075 4281346853
5.6203866 -1.0811279 -1.1676452 4281085485
4.7844725 -0.95075452 -0.98933733 4282398514
4.7699223 -0.97832352 -0.98747993 4282923314
4.8317966 -1.0219537 -1.0021325 4282200104
4.9105206 -1.0701311 -1.0204999 4282266667
4.9477792 -1.1100982 -1.0299932 4281872168
4.5013623 -1.0389544 -0.93485427 4281806628
4.37114 -1.0371772 -0.90802556 4281410588
4.2914968 -1.0461285 -0.89213467 4280423180
4.2830977 -1.0719656 -0.8917219 4281738015
4.2735968 -1.0974957 -0.89110279 4281606175
4.2516437 -1.1197088 -0.88780081 4283185201
4.217298 -1.138378 -0.88181591 4286078030
4.1809993 -1.1561466 -0.87541831 4283380517
4.1587639 -1.1775126 -0.87211633 4282985510
4.1439419 -1.2008288 -0.87046528 4282198053
5.0370679 -1.4932884 -1.0685853 4286943110
3.2112968 1.0609595 -0.71565086 4286280291
3.2038198 1.0367235 -0.71238124 4281215267
4.1139126 1.1661291 -0.91531402 4284175954
4.1303954 1.1434711 -0.91749376 4283253569
4.1392183 1.1186156 -0.91792971 4283452744
4.1648765 1.0981786 -0.92228913 4284375900
4.1894941 1.0772253 -0.92643064 4282465336
5.116138 1.2823379 -1.1383003 4281606939
5.1362352 1.2539334 -1.1411339 4286542184
5.1514277 1.2242013 -1.1428777 4283647542
5.0865798 1.1758479 -1.1263118 4282066718
5.1175027 1.1499697 -1.1317611 4284301362
5.1416245 1.1222978 -1.1356846 4284563503
5.1627345 1.0937655 -1.1389542 4283972657
5.1932478 1.0669825 -1.1444036 4281672997
5.4121799 1.0774447 -1.1927935 4281082937
5.4551044 1.0512414 -1.2010765 4280759117
5.484477 1.0220455 -1.2063079 4280103754
5.5079336 0.99149007 -1.2102313 4280038478
5.5360289 0.96152115 -1.2152448 4280629336
5.5745502 0.93301898 -1.2226558 4283127905
5.6090755 0.90345848 -1.229195 4284243298
3.4310226 0.53060019 -0.73570436 4279048739
5.6699376 0.84202355 -1.2405295 4280039769
5.6827273 0.80831873 -1.2422733 4280104022
5.6991844 0.77501541 -1.244889 4279841620
5.7173815 0.74179202 -1.2479407 4279906902
5.7402287 0.70897359 -1.2520821 4281024343
5.7454395 0.67385268 -1.2523001 4282534235
5.7455864 0.63815492 -1.2514282 4280431179
5.7591004 0.60390848 -1.253608 4279775827
5.7636685 0.56865591 -1.2538259 4279840331
5.7563591 0.53228939 -1.2514282 4280169037
5.7566004 0.49670669 -1.2507743 4279311661
5.7284088 0.45887548 -1.2437992 4281347390
5.7174911 0.42270777 -1.2407476 4286537317
1.8407238 0.12394347 -0.37234351 4285155388
5.7115326 0.35185125 -1.2383499 4281873207
5.6999416 0.3160401 -1.2352983 4286677639
1.8563399 0.090716258 -0.37539512 4283972146
1.8617367 0.079535596 -0.37648499 4283839530
1.8670661 0.068292111 -0.37757486 4284825907
1.8362345 0.055865154 -0.37059972 4283643681
1.8482506 0.044888936 -0.37321541 4286999887
1.804581 0.032722767 -0.36340663 4286473029
1.7481469 0.020933826 -0.35076419 4286998103
1.6984698 0.0098831365 -0.33964756 4281409048
1.6936188 -0.00054047426 -0.33855769 4281344284
1.7052948 -0.01099983 -0.34117338 4281739301
1.7042193 -0.021451501 -0.34095541 4281870887
1.6982008 -0.031802379 -0.33964756 4281739301
1.7009008 -0.042292509 -0.34030148 4281345826
1.7084134 -0.052964844 -0.34204528 4281148193
1.7168338 -0.063766524 -0.34400702 4281082149
5.7151728 -0.24467224 -1.237914 4280819488
5.6677489 -0.27750155 -1.2276692 4282004532
5.7019958 -0.31425273 -1.2357342 4285886832
5.6999602 -0.3492336 -1.2357342 4285097057
5.6334419 -0.37988088 -1.2213479 4286806651
5.6485248 -0.41572571 -1.2252715 4286544253
5.6692171 -0.4522343 -1.2305028 4286215799
5.691617 -0.48917916 -1.2361702 4285887861
5.6904526 -0.52427173 -1.2366061 4285953654
5.6919851 -0.5596543 -1.2376959 4285953402
5.6913557 -0.59487289 -1.2383499 4285953143
5.6875987 -0.62978327 -1.2383499 4288059810
5.7030144 -0.66693306 -1.2427093 4279837233
5.7172194 -0.7041766 -1.2468508 4279707714
5.7302132 -0.74149442 -1.2507743 4280430152
5.7294245 -0.77716434 -1.2516462 4289311407
4.7360206 -0.67223799 -1.0286599 4290690999
4.7279444 -0.70071369 -1.027788 4282925384
5.7160773 -0.88279015 -1.2520821 4285757065
5.6980267 -0.91583598 -1.2492485 4288382597
4.8133984 -0.80416179 -1.0502392 4281998864
4.7824097 -0.82918572 -1.044354 4282857772
4.781074 -0.85920399 -1.0452259 4282398250
4.7939434 -0.89191133 -1.0493673 4281414189
5.5838695 -1.0741683 -1.2302848 4279907130
5.5580282 -1.104609 -1.2259254 4280104255
5.53298 -1.1349695 -1.2217839 4281219654
5.4600253 -1.1549751 -1.2067438 4281544244
4.761467 -1.037922 -1.0487134 4282398253
4.7388196 -1.0634892 -1.0450079 4282793781
4.7540779 -1.0975902 -1.0500213 4282532929
5.3179808 -1.2620552 -1.181023 4282730557
5.2949648 -1.2909665 -1.1775354 4293845718
5.0587668 -1.2663659 -1.1250039 4286865759
4.9015398 -1.2590528 -1.0905643 4289168771
4.7615876 -1.2543299 -1.060048 4282130977
4.744379 -1.2809813 -1.0578682 4281475102
4.76371 -1.3176066 -1.0641896 4281540893
4.1620331 -1.1788777 -0.92643064 4280751118
4.7931166 -1.3892677 -1.0748702 4281869599
4.8125744 -1.4269682 -1.0814093 4292129706
4.9830627 -1.5107987 -1.1232601 4289104508
4.9354758 -1.5295099 -1.1143233 4287466358
3.1413357 1.0814822 -0.74361241 4289308068
3.1230118 1.0537879 -0.73741484 4283055404
3.1321914 1.0355219 -0.73810345 4284963150
4.0655499 1.1798706 -0.958462 4286349441
4.0652218 1.1527789 -0.9566257 4283911240
4.0797224 1.129891 -0.958462 4280555795
4.1457729 1.1208349 -0.9729231 4283845958
4.1770415 1.1018281 -0.97889107 4285557089
4.1790104 1.0749656 -0.97774345 4282398253
5.0210605 1.2586904 -1.1808864 4282857007
5.0059962 1.2223189 -1.1753774 4282329641
5.012455 1.1913546 -1.1751479 4281541924
5.0044975 1.1570697 -1.1714752 4280686615
5.0191002 1.1280476 -1.1733116 4282395942
5.0516019 1.1028328 -1.1795092 4282001184
5.2287126 1.1079178 -1.2205968 4281477938
5.321218 1.0934396 -1.2412554 4281153614
5.3373728 1.0626684 -1.2435508 4280759891
5.3829775 1.037448 -1.252962 4280695127
5.4131627 1.0088556 -1.2587005 4280630112
5.4479885 0.9807936 -1.2655867 4281484905
5.4711652 0.95034391 -1.2697184 4284181117
5.5191317 0.92382264 -1.2798182 4281349961
5.5737028 0.89783126 -1.2915248 4281157220
5.5675645 0.86182892 -1.2887702 4279975013
5.5929661 0.83065206 -1.2935905 4280104279
5.6162658 0.79892176 -1.2979518 4279646549
5.6451731 0.76772326 -1.3036903 4280105312
5.6642556 0.73494834 -1.3071334 4279840072
5.6870117 0.70244491 -1.3114947 4287141278
5.7095819 0.66968989 -1.315856 4280366413
5.7416368 0.63775814 -1.3225126 4279841620
5.743506 0.60231316 -1.3220536 4279578966
5.7809944 0.57040304 -1.3300874 4279775316
5.7843857 0.53492081 -1.3300874 4279577676
5.7894983 0.49958563 -1.3305465 4282071624
5.7740211 0.46257696 -1.3261852 4284695101
5.7126875 0.42240694 -1.3110356 4281344284
1.8522321 0.1257969 -0.39792493 4289565837
1.8529691 0.11442945 -0.39792493 4284632653
1.8546081 0.10311152 -0.39815447 4283582275
1.8590943 0.091921374 -0.39907265 4283385409
1.8576785 0.08042866 -0.39861357 4282463278
1.8581371 0.069028646 -0.39861357 4282001185
1.8332318 0.056847025 -0.39264551 4283511852
1.8228432 0.045333538 -0.39012057 4286012230
1.793893 0.033607289 -0.38323438 4286997576
1.7385916 0.021912685 -0.3701506 4286734407
1.7425865 0.011268787 -0.37106875 4283971879
1.7085574 0.0005725497 -0.36303484 4281606427
1.7182615 -0.0099696303 -0.36533025 4281541925
1.7142751 -0.020465147 -0.36441207 4281345315
1.7150903 -0.031001166 -0.36464161 4281935653
1.7187599 -0.041619297 -0.36555979 4281673510
1.7126352 -0.051986128 -0.36418253 4281279267
1.7190924 -0.062743708 -0.36578932 4281147942
5.456604 -0.23353049 -1.2481416 4280887080
5.7807326 -0.28297043 -1.3250376 4280820519
5.698226 -0.31398493 -1.3059857 4280161047
5.6893921 -0.34852567 -1.304379 4286083698
5.6978288 -0.38414946 -1.306904 4284176982
5.6526546 -0.41595769 -1.2968042 4282597949
5.6509666 -0.45071134 -1.2970337 4285229670
5.6975498 -0.48963001 -1.3087403 4285624430
5.7012229 -0.52520567 -1.310347 4285492592
5.6988616 -0.56027317 -1.3105766 4285360486
5.6991887 -0.59563506 -1.3114947 4285426022
5.699296 -0.63102216 -1.3124129 4285492590
5.747519 -0.67208833 -1.324808 4280167220
5.748117 -0.707937 -1.3259557 4279903543
5.7494564 -0.74394321 -1.327333 4279116600
5.74189 -0.77881455 -1.3266443 4282796629
4.7309651 -0.67121488 -1.0870044 4284045405
5.6808729 -0.84165424 -1.3144788 4280496193
5.6698303 -0.87560385 -1.3131015 4283063149
5.6585855 -0.90944976 -1.3117243 4282005561
4.8551469 -0.81085646 -1.1209763 4281867019
4.7896638 -0.83015537 -1.1065154 4283053613
4.7854376 -0.85970074 -1.1067449 4282922286
4.8106928 -0.89474499 -1.1140902 4281480759
5.5200238 -1.0618153 -1.2857863 4280828232
5.5048132 -1.0939574 -1.2837204 4280103228
5.4541392 -1.1187147 -1.2731615 4279376676
5.4071794 -1.1436976 -1.2635208 4281942861
5.3002086 -1.1550857 -1.2394191 4280826187
5.3348069 -1.1969639 -1.2495189 4282538096
5.314085 -1.2266096 -1.2463053 4294048255
5.257216 -1.2475042 -1.2343693 4285428591
4.761538 -1.1607531 -1.1159265 4281148960
4.769433 -1.1937298 -1.1195991 4282329639
4.8242359 -1.2389556 -1.1347488 4283512630
4.8692493 -1.282419 -1.147603 4293906121
4.8133669 -1.2993319 -1.1358964 4282327842
4.8371978 -1.3376644 -1.1437008 4281539618
4.8317089 -1.3681153 -1.1443895 4280355081
4.853137 -1.4064077 -1.1517347 4289499277
4.8509483 -1.4380964 -1.1533415 4289103230
4.8438959 -1.4683993 -1.1538006 4287721830
4.8357248 -1.4983813 -1.1540302 4285222732
4.8654108 -1.5403659 -1.1636709 4289043597
4.6058302 -1.4893177 -1.1016951 4291084203
4.5661063 -1.5074788 -1.0941201 4288381300
4.557693 -1.5357783 -1.0943497 4284696367
4.5481839 -1.5637149 -1.0943497 4287724888
4.5568724 -1.5980359 -1.0989405 4291805586
4.5524797 -1.627933 -1.1003177 4293583549
4.5460629 -1.6571695 -1.101236 4293585859
4.5166492 -1.6779132 -1.0964156 4294701500
4.4862437 -1.6980138 -1.0913657 4286803770
4.4975352 -1.7339133 -1.0968747 4287134018
4.5275793 -1.7774858 -1.107204 4286150746
3.0428193 1.0677521 -0.75974083 4288518541
3.0685847 1.0556993 -0.76479632 4284175168
3.1798394 1.072242 -0.79224026 4279700488
3.0905237 1.0210118 -0.76720369 4290688958
4.0451994 1.2275151 -1.0084214 4285230440
4.0721936 1.2084754 -1.0134768 4285294944
3.9630218 1.1496317 -0.98338485 4288781716
4.0353627 1.14384 -1.0002364 4288453786
4.8092804 1.3316149 -1.1976402 4286676340
4.8557734 1.3124729 -1.2075104 4285750610
4.844028 1.2774516 -1.2024549 4284567616
4.8348556 1.24335 -1.1981217 4284238651
4.8904061 1.2257059 -1.2103992 4284564530
4.884635 1.1924503 -1.2070289 4284891949
4.8786402 1.1593117 -1.2036586 4284958772
4.8932271 1.1311055 -1.2055844 4283775275
4.9142785 1.1042551 -1.2091955 4282329892
5.1257772 1.118835 -1.2611945 4281413183
5.2047052 1.102667 -1.2794905 4280825945
5.2360911 1.0757949 -1.2857497 4280761960
5.28162 1.0514245 -1.2956198 4280631390
5.3127503 1.0237776 -1.3018789 4280632408
5.3380151 0.99472022 -1.3066937 4280893789
5.3612113 0.96504682 -1.3110269 4290035665
5.3957195 0.93712157 -1.318249 4278325791
5.4511442 0.91233814 -1.3307673 4280565084
5.4786782 0.88242775 -1.3363042 4280632165
5.4993358 0.85117316 -1.340156 4280368736
5.5294161 0.82112598 -1.3464152 4280433761
5.561255 0.79101521 -1.3531557 4279974502
5.5852385 0.75949669 -1.3579705 4280039767
5.6100059 0.72783864 -1.3630259 4288191143
5.6268883 0.69495171 -1.3661555 4280429637
5.6445417 0.66199827 -1.3695258 4280300633
5.6880479 0.63175243 -1.3793961 4280169045
5.6763725 0.59521663 -1.3755442 4280038229
5.7204852 0.56438661 -1.3856552 4279511885
5.7315722 0.52999222 -1.3875811 4280693063
5.7521214 0.49631938 -1.3919144 4284176214
5.7705383 0.46225885 -1.3957661 4282201661
5.7984324 0.42870852 -1.4020252 4278586394
1.849092 0.12451226 -0.41958046 4286727762
1.8672585 0.11424188 -0.42391372 4281475102
5.802434 0.32174397 -1.4013031 4279243556
5.8081765 0.28632674 -1.402266 4279573289
5.8010969 0.25030473 -1.4000994 4279834662
1.8219737 0.066614509 -0.41211763 4287860363
1.8194377 0.055343442 -0.41139543 4283974713
1.7983967 0.043646593 -0.40609923 4286536774
1.8325953 0.033248905 -0.414525 4287654986
1.7221264 0.020604836 -0.38708106 4288775015
1.709603 0.0099555794 -0.38395149 4283314974
1.7067201 -0.0005356152 -0.38322929 4281869598
1.6969789 -0.010951888 -0.38082191 4281476646
1.7056146 -0.021468107 -0.38298854 4281674280
1.7112733 -0.032038186 -0.38443297 4282001698
1.7120148 -0.042561218 -0.38467371 4281673508
1.715602 -0.053182796 -0.38563666 4281213729
1.7385221 -0.064557292 -0.39141431 4281082143
1.7225778 -0.074562386 -0.38756254 4280820258
5.7782211 -0.28288758 -1.3948032 4280427820
5.7880058 -0.31897533 -1.397692 4281347892
5.7878771 -0.35460216 -1.3981735 4281281070
5.786561 -0.39017436 -1.3984143 4281216306
5.7046828 -0.41984722 -1.3786738 4281152053
5.6516876 -0.45083961 -1.3661555 4280626479
5.7716298 -0.49603951 -1.396729 4280362540
5.7723432 -0.53179961 -1.397692 4280362289
5.7689719 -0.56720799 -1.397692 4279968300
5.7615213 -0.60219228 -1.396729 4280099886
5.7577181 -0.63753295 -1.396729 4280230449
5.7344165 -0.67059886 -1.3919144 4280034102
5.7176704 -0.7042321 -1.3887848 4280232512
5.7026534 -0.73793381 -1.3861367 4280431688
5.687438 -0.77147782 -1.3834885 4280366147
5.6499238 -0.80173111 -1.3753035 4288259507
5.630496 -0.83425248 -1.3716924 4280366149
5.6252708 -0.86878484 -1.3716924 4279972159
5.6016264 -0.90036166 -1.3671185 4281676078
4.8425536 -0.80902541 -1.177659 4281472522
4.7963748 -0.83160365 -1.1673074 4282922027
4.800735 -0.86273241 -1.1697147 4282331690
4.8239789 -0.89749199 -1.1769369 4281809208
5.4503217 -1.0485061 -1.336545 4282338389
5.3542962 -1.064163 -1.3139157 4278650906
5.3790436 -1.1034259 -1.3218601 4282072657
5.2249804 -1.1053067 -1.2845459 4279575357
5.3119888 -1.1577885 -1.3083788 4281158753
5.2953143 -1.1882373 -1.3059715 4282538085
5.2604966 -1.2143811 -1.2989901 4293916145
5.2236695 -1.2396947 -1.2915273 4294442229
5.1791868 -1.2627648 -1.2821386 4292863198
5.1233196 -1.2825103 -1.269861 4294574077
4.9715142 -1.2770096 -1.2330284 4279244056
4.8415632 -1.2753774 -1.2017326 4281544496
4.7024531 -1.269672 -1.1680295 4281932569
4.7787714 -1.3217688 -1.1896958 4286534223
4.7593641 -1.3478948 -1.186807 4285748306
4.7398171 -1.3738326 -1.1839181 4289434002
4.6726699 -1.3855206 -1.1687518 4293380042
4.6092753 -1.3975626 -1.1545483 4285483851
4.6933284 -1.4545281 -1.178622 4280877568
4.7046742 -1.4897395 -1.1839181 4283705632
4.6169415 -1.4932103 -1.1634556 4287192135
4.5579195 -1.505089 -1.1504558 4287851587
4.4842105 -1.5113441 -1.1336043 4287854140
4.4766889 -1.5394611 -1.1340858 4287329328
4.4534187 -1.562085 -1.1304747 4287854643
4.4519758 -1.592321 -1.1326413 4288117817
4.4749522 -1.6315688 -1.1413078 4288578882
4.4775958 -1.6637256 -1.1446781 4285615377
4.465487 -1.6904814 -1.1441966 4287456302
4.4631815 -1.7209902 -1.1463633 4286474020
4.4877753 -1.7621697 -1.1557521 4286672954
4.4831877 -1.7921934 -1.1574372 4286480490
4.0394897 1.4734881 -1.0805277 4285098086
4.0766997 1.4587786 -1.0883471 4284371791
2.9825449 1.046766 -0.78364325 4283975479
3.0447299 1.0476444 -0.79902977 4282463014
3.0767756 1.0375975 -0.80609244 4281741095
4.0256186 1.3026611 -1.0626187 4288849583
4.0815058 1.2931291 -1.0757351 4288060059
4.0570145 1.2580332 -1.0669068 4283059791
3.9516828 1.1988539 -1.0361338 4285886573
3.903301 1.1580752 -1.0209994 4285027411
3.9344976 1.141109 -1.0275576 4281146907
4.1313548 1.1707499 -1.0790142 4284108619
4.7362766 1.3107741 -1.2406989 4284696892
4.7404928 1.2806789 -1.2396899 4280222464
4.7557478 1.2535402 -1.2417079 4284368693
4.3490982 1.1178946 -1.1302186 4285092418
4.769834 1.1948504 -1.2414557 4284892981
4.7657943 1.1628091 -1.2384288 4284957745
4.7784886 1.134886 -1.2399422 4284562986
4.7844191 1.1053268 -1.2396899 4282657572
5.0129905 1.1257586 -1.2989659 4280426028
5.0141311 1.0937414 -1.2974526 4280894049
5.047255 1.0685645 -1.3045152 4280631908
5.1570387 1.05878 -1.3320092 4280762973
5.2165871 1.0376853 -1.3461345 4279972946
5.2542129 1.0116929 -1.3544583 4279772986
5.2926674 0.98545456 -1.3630345 4287667370
5.3109956 0.95518667 -1.3663136 4280299583
5.3377318 0.92621917 -1.3718628 4280631389
5.3910356 0.9014259 -1.3844748 4280960871
5.4107962 0.87063503 -1.3882583 4280763494
5.4389882 0.84096575 -1.394312 4280895078
5.4708471 0.81155068 -1.4013747 4280694609
5.5150042 0.78354496 -1.4117165 4293780198
5.5408025 0.75255442 -1.4172657 4292329395
5.5635495 0.72090387 -1.4220582 4290820026
5.5813136 0.6884104 -1.4255896 4287073164
5.5748606 0.65291369 -1.422815 4294635758
5.6085768 0.6219992 -1.4306344 4294964977
5.6382732 0.59029263 -1.4374448 4294698721
5.6677904 0.55824488 -1.4442552 4294237140
5.6865258 0.52487946 -1.4482911 4286012239
5.7127781 0.49196872 -1.4543447 4294762196
5.7224412 0.45744583 -1.4561104 4294961629
5.7463713 0.42388967 -1.4616597 4294698456
1.8493466 0.12528005 -0.44286934 4286344811
1.8539438 0.11416741 -0.44387829 4283980895
5.7599635 0.31841937 -1.4634253 4293776063
5.7405462 0.28202772 -1.4578761 4293249719
5.743135 0.24684057 -1.4581283 4285090627
5.6778178 0.2091435 -1.4407239 4290156436
1.8024095 0.055585627 -0.42975295 4288315246
1.8143253 0.044809416 -0.43277982 4286997828
1.799086 0.033392113 -0.42874402 4288313940
1.732493 0.021537511 -0.41133958 4288906591
1.6996926 0.010707006 -0.40276346 4284104232
1.7026293 0.000277496 -0.4035202 4281869341
1.713243 -0.010235656 -0.40629479 4281739818
1.7208889 -0.02084323 -0.40831271 4282068266
1.7304035 -0.031580761 -0.41083509 4282068260
1.735014 -0.042316779 -0.41209629 4281805346
1.7424593 -0.053199794 -0.41411418 4281213727
1.7614403 -0.064603925 -0.41915897 4281017121
1.7658446 -0.075618774 -0.42042014 4280557599
5.4399672 -0.26721594 -1.3794299 4280289792
5.4150362 -0.29930654 -1.3733763 4280026368
5.3599768 -0.32925987 -1.3595031 4282658337
5.3607516 -0.36233786 -1.3602599 4280027137
5.4230852 -0.39999771 -1.3771598 4287527019
5.5131288 -0.44067383 -1.4013747 4287199075
5.5768433 -0.48022637 -1.4187791 4287659883
5.7404881 -0.52983326 -1.4624164 4285817681
5.7005353 -0.56143957 -1.4528313 4286147673
5.7114191 -0.59791911 -1.4566149 4286937451
5.7134132 -0.63359278 -1.4581283 4281477925
5.700768 -0.66762418 -1.4558581 4279439118
5.6725554 -0.69962794 -1.4495522 4280296234
5.6604786 -0.73342568 -1.4475343 4280364349
5.6376534 -0.76566839 -1.4427418 4280563017
5.6194367 -0.79833955 -1.4392104 4290364630
5.6039033 -0.8312422 -1.4364358 4279573550
5.5690522 -0.86102593 -1.4286164 4279839292
5.5120745 -0.88687646 -1.4149956 4281084720
4.8938007 -0.8181904 -1.2530586 4284236604
4.829577 -0.837942 -1.2374198 4282790443
4.8291063 -0.86841667 -1.2386811 4282529838
4.8208327 -0.8974995 -1.2379243 4282662213
5.2684808 -1.0143621 -1.3582419 4280230198
5.3703508 -1.068198 -1.3869971 4280955968
5.0594244 -1.0386425 -1.3060286 4279247155
5.3038244 -1.1227933 -1.3728718 4281023817
5.2448368 -1.1439704 -1.3589987 4278657314
5.230166 -1.1744339 -1.3569808 4294180600
5.1992903 -1.2010567 -1.3506749 4294373867
5.1720524 -1.2282398 -1.3453778 4292664014
5.0252872 -1.2259974 -1.3080466 4291676356
4.9500871 -1.2398757 -1.2898854 4279769373
4.9095845 -1.2617927 -1.281057 4285167485
4.7333255 -1.2474902 -1.2356541 4284773232
4.8899946 -1.3209361 -1.2800481 4281545521
4.6840868 -1.296188 -1.2265736 4291405472
4.6229792 -1.309864 -1.212196 4286992956
4.616713 -1.3387448 -1.2127005 4284886539
4.6195445 -1.3703502 -1.2157273 4289887833
4.6369767 -1.4065365 -1.22279 4286202922
4.6264105 -1.4343886 -1.2222855 4283245325
4.6221347 -1.4642103 -1.2235467 4283508243
4.6130629 -1.4925436 -1.2235467 4286270263
4.6111689 -1.5232495 -1.2255646 4285544230
4.469698 -1.5069852 -1.1892424 4287583023
4.4466419 -1.5296595 -1.1854588 4287848239
4.4353466 -1.5562739 -1.1849543 4287324205
4.4229808 -1.5824813 -1.1841975 4287456813
4.4186416 -1.6115803 -1.185711 4287393589
4.4349732 -1.6484413 -1.1930259 4287657806
4.4917397 -1.7009878 -1.2116915 4284763435
4.4902458 -1.7319998 -1.214214 4285354020
4.5011497 -1.7680111 -1.2202677 4285619498
4.5045919 -1.8013463 -1.2243035 4286610519
4.0257258 1.5258416 -1.1340563 4279046929
4.0241632 1.4970722 -1.130898 4285822579
4.0359917 1.4733454 -1.1316876 4284504141
2.8897648 1.0345082 -0.79689777 4284108870
4.0146317 1.4099497 -1.12037 4288513385
3.1995854 1.1014427 -0.88270086 4283054653
4.0462556 1.3655175 -1.1245812 4286215017
3.8869517 1.2851933 -1.0764157 4286348150
4.0627084 1.315761 -1.1245812 4282860356
4.0541534 1.2855543 -1.1198436 4281346856
3.8767819 1.2031258 -1.0669404 4287925902
3.7844024 1.1490159 -1.038515 4282268984
4.0983987 1.2170352 -1.1258972 4288452500
4.1150532 1.194557 -1.1285292 4281739304
4.1510754 1.1774541 -1.1366884 4283973947
4.6323452 1.2834475 -1.2709202 4285024305
4.6531701 1.2585293 -1.2746049 4284629809
4.574059 1.2070402 -1.2501274 4284103729
4.6290255 1.1912253 -1.2635505 4284565296
4.6390548 1.1635044 -1.2643402 4285022763
4.6414213 1.1338719 -1.2630242 4284628780
4.6764464 1.112074 -1.2709202 4282198312
4.9360065 1.1419096 -1.3417208 4280493362
4.967391 1.1171105 -1.348564 4279378228
4.9901738 1.090114 -1.3530384 4287010479
4.9986558 1.0598749 -1.3535649 4282602356
4.995616 1.0272386 -1.3509328 4281154651
5.004663 0.9971329 -1.3517225 4285956760
4.9500637 0.95469928 -1.3348776 4279966499
3.2905326 0.61331463 -0.87269926 4286614682
5.2623715 0.94817865 -1.418312 4280565594
5.3013558 0.92166227 -1.427524 4280629845
5.3326001 0.89342612 -1.4346303 4280565337
5.3675065 0.8654561 -1.4427896 4280632159
5.3908296 0.83531606 -1.4477903 4280697701
5.4168458 0.80534863 -1.4535807 4281420131
5.4570236 0.77713645 -1.4633191 4285295221
5.4741158 0.74533278 -1.4667406 4287264635
5.4833694 0.71235263 -1.4680567 4282332477
5.5096574 0.68142211 -1.4741102 4282792780
5.5348139 0.65008295 -1.4799006 4281478202
5.5875978 0.62155956 -1.4933238 4279835683
5.5980225 0.58796978 -1.4951662 4280492322
5.6005645 0.55351484 -1.494903 4287462003
5.5932884 0.51815885 -1.4920079 4282130977
5.5848293 0.48282975 -1.4888494 4283579704
1.8450159 0.14732194 -0.4644767 4286014047
1.8516576 0.13642734 -0.46605587 4287853939
1.8409097 0.12427612 -0.46289748 4286215545
5.6190686 0.3471179 -1.4954294 4283448630
5.622056 0.31268716 -1.4956926 4284895815
5.636395 0.27880722 -1.4991142 4285619289
5.6081209 0.24291722 -1.490955 4284237898
5.3925905 0.20039394 -1.4317352 4280289026
1.796023 0.054927174 -0.44973752 4288247913
1.8011483 0.044026963 -0.4510535 4287653957
1.7811286 0.032590531 -0.4455263 4288114761
1.7349914 0.021067601 -0.43289274 4288314454
1.7466646 0.010498846 -0.43605113 4283643943
1.7148597 -0.00023604801 -0.42736554 4282000155
1.7119317 -0.010742045 -0.42657596 4281870890
1.7089397 -0.021212121 -0.42578635 4281870887
1.711671 -0.031749271 -0.42657596 4282067491
1.7162664 -0.042367041 -0.42789194 4281608485
1.7275456 -0.053245861 -0.43105033 4281213986
5.2988796 -0.22601175 -1.4064679 4282596153
1.7677079 -0.087048225 -0.44236791 4281216819
1.7575077 -0.097365804 -0.43973592 4280952107
5.3082657 -0.324388 -1.4104159 4283647803
5.3004003 -0.35656556 -1.4088367 4283384120
5.3327503 -0.39161754 -1.418312 4286409316
5.3639073 -0.42700347 -1.427524 4285487438
5.4005966 -0.46327996 -1.4383152 4282792233
5.4341593 -0.49975815 -1.4483167 4281673502
5.5663714 -0.54635143 -1.4854279 4280688926
5.5686712 -0.58109528 -1.487007 4280295197
5.553494 -0.61398333 -1.4838487 4280493348
5.5649543 -0.64983451 -1.4880599 4279969060
5.563735 -0.68432087 -1.4888494 4279969322
5.555604 -0.71795267 -1.4877967 4279970098
5.5606546 -0.75332087 -1.4904286 4279773491
5.557838 -0.78769654 -1.490955 4280100397
4.6872807 -0.69386387 -1.252233 4283850087
5.5305901 -0.85319644 -1.4862174 4281088068
5.4804802 -0.87993675 -1.473847 4279573540
4.8916354 -0.8163386 -1.3125057 4284368957
4.8218918 -0.83515751 -1.2946081 4283183649
4.8271222 -0.86660105 -1.2975034 4282461727
4.8245592 -0.8967315 -1.2982929 4281016859
5.2178388 -1.0028915 -1.4090999 4281545782
5.050715 -1.0029805 -1.364356 4280295715
5.1484308 -1.0552369 -1.3933079 4278517761
5.0031009 -1.0575111 -1.3546176 4283057471
5.0464811 -1.099059 -1.3685672 4292071099
4.8748946 -1.093102 -1.3225073 4293255119
4.7740846 -1.1013297 -1.2961873 4283584330
4.9671926 -1.1779733 -1.3522488 4288256922
4.9617457 -1.2088854 -1.3527752 4281217849
4.9654665 -1.2421143 -1.3559337 4280363828
4.968966 -1.2754341 -1.359092 4279706668
4.9302564 -1.2978019 -1.3504064 4279708208
4.9054337 -1.3235092 -1.3456688 4278525225
4.830265 -1.3350937 -1.3267184 4292930541
4.5592618 -1.2904183 -1.252233 4288973702
4.5419908 -1.3156872 -1.249601 4292586640
4.5329075 -1.3432575 -1.2493378 4292714876
4.5218101 -1.3702071 -1.2485482 4293437313
4.5114741 -1.3973562 -1.2480218 4293897343
4.5000558 -1.4241393 -1.2472322 4293633142
4.5141835 -1.4591367 -1.2538122 4292516712
4.511559 -1.4889226 -1.2556546 4294956726
4.4675937 -1.5048829 -1.245653 4283244555
4.4637499 -1.5341471 -1.2472322 4285283117
4.4314904 -1.553534 -1.2406522 4286269996
4.4082465 -1.5758281 -1.2367042 4286337326
4.4066534 -1.6058178 -1.239073 4285747763
4.4708843 -1.6603488 -1.2606554 4284368428
4.4786601 -1.694574 -1.2659193 4284500784
4.4897852 -1.7303438 -1.2722361 4283577362
4.4826756 -1.7592689 -1.273289 4285877280
4.4762769 -1.7885298 -1.2746049 4286536740
4.4866681 -1.8246794 -1.2809217 4286345806
4.001605 1.5445046 -1.1835856 4282401343
4.0083089 1.5189003 -1.1827623 4285820777
2.7503161 1.0230746 -0.79686767 4287860620
2.764672 1.0091461 -0.7993378 4284831824
3.9939413 1.4299568 -1.170137 4286606668
