# .PCD v0.7 - Point Cloud Data file format
VERSION 0.7
FIELDS x y z rgb
SIZE 4 4 4 4
TYPE F F F U
COUNT 1 1 1 1
WIDTH 1111
HEIGHT 1
VIEWPOINT 0 0 0 1 0 0 0
POINTS 1111
DATA ascii
5.6880999 -0.55927312 -1.236824 4293916139
5.6932969 -0.59507543 -1.2387857 4287467907
5.6963291 -0.63074815 -1.2403116 4278194202
5.7330651 -0.67044109 -1.2494664 4280569183
5.7375612 -0.70667785 -1.2514282 4280964204
5.7350526 -0.74211967 -1.2518642 4287934392
4.7410226 -0.64329666 -1.0288779 4292536804
5.7351775 -0.81381088 -1.2540439 4281350462
5.7155943 -0.84684336 -1.2507743 4279845462
5.6823182 -0.87758338 -1.2444531 4282340439
5.634428 -0.90562701 -1.2348623 4281871906
4.7931828 -0.80078936 -1.0456618 4283515185
4.7881794 -0.8301847 -1.0456618 4283254324
4.7897196 -0.8607555 -1.0471876 4279376413
5.5682864 -1.0357856 -1.2252715 4289912804
5.5445743 -1.0666175 -1.2213479 4287152571
5.5264382 -1.0983377 -1.2187322 4287805110
5.457449 -1.1194922 -1.2045641 4278391568
5.428515 -1.1483165 -1.1995506 4280230172
4.7566991 -1.036884 -1.0476235 4292529594
4.7588181 -1.0679722 -1.0495853 4294239684
4.7597837 -1.0989062 -1.0513291 4287398770
5.2961392 -1.2568767 -1.1760097 4279108864
5.159368 -1.2579374 -1.1463653 4280622091
4.9527259 -1.2398459 -1.1005909 4285225803
4.9195008 -1.263662 -1.0947057 4281672722
4.7436552 -1.2496105 -1.0559065 4286536004
4.7603979 -1.2853022 -1.0615739 4286662960
4.819211 -1.3329437 -1.0770499 4284230937
4.9198751 -1.393312 -1.1023347 4286274634
4.933732 -1.429989 -1.1075661 4286470983
4.9351583 -1.4632844 -1.1099638 4286996817
4.9382291 -1.4972167 -1.1127975 4285422933
4.5681372 -1.6973428 -1.0487134 4288520584
3.1201682 1.0741974 -0.73833299 4286805857
3.1303899 1.0562764 -0.7392512 4282795839
4.0638323 1.2064556 -0.95983928 4285953656
4.072093 1.1817689 -0.96006882 4292727223
4.0717764 1.154637 -0.95823246 4288648561
4.1313133 1.1441742 -0.97108668 4283255854
4.1438937 1.1203271 -0.97246403 4293319625
4.1666894 1.0990983 -0.9763661 4288052072
4.9538569 1.2742051 -1.1664253 4287127363
4.9823523 1.2489899 -1.1714752 4283639054
4.9785757 1.2156258 -1.1687207 4282784006
4.9679489 1.1807801 -1.1643595 4283839002
4.9779453 1.1509327 -1.1650481 4286799685
5.0039062 1.1246339 -1.1696389 4282460958
5.1666632 1.1279432 -1.2072835 4281612604
5.2810822 1.1190104 -1.2332215 4280170569
5.3097773 1.0910896 -1.238501 4278723129
5.3440547 1.0639983 -1.2451576 4293852671
5.377243 1.0363432 -1.2515848 4284971900
3.3684034 0.62792057 -0.76817322 4282734427
5.4470305 0.98062122 -1.2653571 4288007375
5.4769187 0.95134294 -1.2710956 4287940301
5.5114522 0.92253768 -1.2779819 4287416780
5.5477576 0.89365381 -1.2853271 4286825159
5.5675645 0.86182892 -1.2887702 4286694602
5.5891147 0.83008039 -1.2926724 4286827216
5.6114473 0.79823673 -1.2968042 4286762191
5.6345639 0.76628125 -1.3011655 4287813333
5.6574993 0.73407209 -1.3055266 4284849562
5.6821818 0.70184869 -1.310347 4287813083
5.7086153 0.66957659 -1.3156264 4286434263
5.7367997 0.63722122 -1.3213649 4286039256
5.7541537 0.60342908 -1.3245785 4286171099
5.7713084 0.56944799 -1.327792 4286104008
5.7785707 0.53438348 -1.3287102 4289584856
5.7856197 0.49925119 -1.3296283 4289109136
5.7323027 0.45923758 -1.3163151 4287197549
1.8368655 0.13608404 -0.39448184 4294636525
1.8483478 0.12553389 -0.39700678 4284698173
1.8529691 0.11442945 -0.39792493 4294569704
1.8458618 0.10262708 -0.39608863 4289834912
1.8542337 0.091682054 -0.39792493 4290494121
1.848927 0.080051579 -0.3965477 4289899930
1.8406297 0.068381898 -0.39448184 4287594082
1.8157207 0.056307711 -0.3885138 4289828475
1.7907341 0.044541802 -0.38254574 4292064916
1.742317 0.032652155 -0.37106875 4288842878
1.7210735 0.021695783 -0.36601886 4284303678
1.7153347 0.011098596 -0.36464161 4283842613
1.7056375 0.00057223119 -0.36234623 4284172346
1.7133951 -0.0099403011 -0.36418253 4284435518
1.7103822 -0.020417795 -0.36349392 4284501568
1.7141172 -0.030983355 -0.36441207 4283844151
1.7177869 -0.041595519 -0.36533025 4283121206
1.7408476 -0.052848868 -0.37083921 4282594862
5.7804155 -0.24741183 -1.3245785 4286747784
5.724349 -0.28020665 -1.3117243 4285162847
5.7118316 -0.31473556 -1.3091993 4294507003
5.7088218 -0.3497172 -1.3089697 4294833399
5.6385922 -0.38015169 -1.292902 4292271314
5.6410065 -0.41509977 -1.2940496 4294835447
5.6888046 -0.45373183 -1.3059857 4294506995
5.7179141 -0.49138141 -1.3135606 4294835960
5.7157607 -0.52654594 -1.3137901 4294967034
5.7211399 -0.56246495 -1.315856 4286809472
5.7253251 -0.59836847 -1.3176923 4288983717
5.7563715 -0.63734537 -1.3259557 4280432183
5.7571859 -0.67321944 -1.3271035 4280765021
5.7432871 -0.70734179 -1.324808 4280635239
5.7311168 -0.74156898 -1.3229717 4284249731
4.7321014 -0.64178097 -1.0863159 4294637290
4.7174745 -0.66929972 -1.0837909 4283389519
5.6616173 -0.83880007 -1.3098879 4280172368
5.6467452 -0.87203717 -1.3075925 4281088822
5.6009283 -0.90017909 -1.2979518 4286476892
4.8426666 -0.80877119 -1.1179924 4290617221
4.7829509 -0.82899135 -1.1049086 4289434741
4.8084288 -0.86383295 -1.1122539 4282926901
5.5168667 -1.0261446 -1.2834908 4287214003
5.4932623 -1.0566655 -1.2793591 4292409068
5.3807125 -1.0692863 -1.2538801 4278258195
5.4064674 -1.1089332 -1.2616845 4287469203
5.3062444 -1.1223409 -1.2391895 4281680971
5.3315907 -1.1619272 -1.2469939 4280696911
5.2987194 -1.1888644 -1.2407963 4279446577
5.285635 -1.2200404 -1.2394191 4279575844
5.243011 -1.2441325 -1.2309262 4279505928
4.7653203 -1.1616755 -1.1168447 4293054662
4.7609353 -1.1916022 -1.1175333 4282921774
4.7978406 -1.2321746 -1.1283216 4282791983
4.8391314 -1.2744843 -1.1402577 4281671184
4.8152461 -1.2998393 -1.1363555 4287784523
4.8193746 -1.332734 -1.1393396 4287125823
4.8392005 -1.3702372 -1.1462258 4287192384
4.8316364 -1.4001752 -1.1464553 4286799174
4.8322854 -1.4325622 -1.1487508 4288310107
4.8429646 -1.4681168 -1.1535711 4285746490
4.8385139 -1.4992456 -1.1547188 4288978564
4.6065311 -1.4583844 -1.0996292 4288914062
4.5845308 -1.4824286 -1.0964156 4293651661
4.5771971 -1.5111413 -1.0968747 4294966979
4.5595379 -1.5364001 -1.0948088 4294506935
4.5297761 -1.5573845 -1.0897589 4293125019
4.584425 -1.6077008 -1.1058267 4290359906
4.5249867 -1.6180992 -1.0934316 4294966690
4.4948559 -1.6384984 -1.0883816 4294572700
4.4801555 -1.6643525 -1.087234 4294572967
4.4798717 -1.6956015 -1.0897589 4294770606
4.515698 -1.7409171 -1.1014655 4293981378
3.0279868 1.0834566 -0.7575742 4287402632
3.0473979 1.0693606 -0.76094455 4285159225
3.0878561 1.0623372 -0.7698518 4287134321
3.1016731 1.0458541 -0.77177769 4282667084
3.9968061 1.2396504 -0.99782908 4281087805
4.0869908 1.2402092 -1.0192546 4290951600
3.9270506 1.1653588 -0.97592199 4285158470
4.074872 1.1821127 -1.0122732 4284238136
4.8122239 1.3642784 -1.200529 4285160527
4.8167629 1.3336886 -1.199566 4284367925
4.8332877 1.3063897 -1.2017326 4290614665
4.8186898 1.2707633 -1.195955 4293508265
4.8301558 1.2421403 -1.1969179 4291926123
4.8452182 1.2143691 -1.1988438 4291860070
4.8535213 1.184847 -1.1990845 4292122472
4.8625884 1.1554933 -1.199566 4291795319
4.8903899 1.1304492 -1.2048622 4282852885
5.0421143 1.1330113 -1.2416949 4281416519
5.1731877 1.1291947 -1.2732314 4280959064
5.2170482 1.1052848 -1.2826201 4280496709
5.2589078 1.080488 -1.2915273 4293719550
5.259727 1.0470612 -1.2900828 4281088846
5.3346701 1.0280064 -1.3074158 4290765544
5.3637767 0.9995265 -1.3131936 4287939253
5.3803153 0.96848989 -1.3158417 4288006084
5.4081507 0.93928331 -1.3213786 4288072657
5.4377432 0.91009229 -1.327397 4288007630
5.4643054 0.88010961 -1.3326932 4287811279
5.4954996 0.85057855 -1.3391931 4287219401
5.5322962 0.8215543 -1.3471373 4287154375
5.5545287 0.79005706 -1.3514706 4287680722
5.5852385 0.75949669 -1.3579705 4281693042
5.6100059 0.72783864 -1.3630259 4288864477
5.6317043 0.69554758 -1.3673592 4287024595
5.673461 0.66539592 -1.376748 4286894037
5.6774368 0.63057172 -1.376748 4287024090
5.6937475 0.59704214 -1.3798774 4286762199
5.7175875 0.56410009 -1.384933 4288667098
5.7228742 0.52918613 -1.3854145 4290832607
5.7424517 0.49548304 -1.3895069 4292869629
5.7647333 0.46179268 -1.3943217 4284451986
1.8231269 0.13398996 -0.41332132 4286933080
1.8326299 0.12339333 -0.41548795 4286734155
5.8177881 0.3584187 -1.4056363 4281687139
5.8285995 0.32320011 -1.4078029 4283332475
5.8013906 0.28599086 -1.4005808 4283855478
5.8204904 0.25114545 -1.404914 4284241748
1.7899663 0.06542372 -0.40417334 4288320125
1.7961547 0.054620262 -0.40561774 4289896839
1.7692881 0.042921212 -0.39887714 4290618240
1.7277901 0.03128057 -0.38852549 4290946455
1.7114507 0.020469859 -0.38443297 4284434235
1.6911621 0.0098355869 -0.37937751 4284105783
1.6873083 -0.00054281467 -0.37841457 4284697920
1.6989201 -0.010963079 -0.3813034 4284764483
1.6997914 -0.021398803 -0.38154414 4284304189
1.6938055 -0.03172309 -0.38009971 4283909944
1.6596183 -0.0412944 -0.37167394 4283449395
1.7136618 -0.05312397 -0.38515517 4282530096
1.7268827 -0.064132906 -0.38852549 4279570444
5.7817874 -0.2475104 -1.3952847 4286290840
5.7859764 -0.28326571 -1.396729 4284644467
5.7909131 -0.31913498 -1.3984143 4290557624
5.7907834 -0.35477963 -1.3988956 4285293416
5.7904348 -0.39043477 -1.3993771 4290954423
5.4733338 -0.40286815 -1.3211379 4289770402
5.8103633 -0.46346435 -1.4056363 4289772210
5.8112788 -0.49943903 -1.4065993 4290958552
5.7839413 -0.53286582 -1.4005808 4290960094
5.7776651 -0.56806099 -1.3998586 4280105785
5.7576599 -0.60178947 -1.3957661 4280963155
5.7355299 -0.63508064 -1.3911921 4280765776
5.7238121 -0.66936094 -1.3892663 4280699482
5.7032204 -0.70245528 -1.3851737 4280635237
5.6766639 -0.73457605 -1.3796368 4280768615
5.6653166 -0.76848167 -1.3779516 4290694100
5.6239772 -0.79805464 -1.3688036 4280562239
5.6295362 -0.83411038 -1.3714517 4280635489
5.5916972 -0.86360663 -1.3632667 4284314748
5.5326271 -0.88928586 -1.3497854 4286015058
4.8013873 -0.802158 -1.1673074 4289103970
4.7925491 -0.83094132 -1.1663444 4290025074
4.8036013 -0.86324674 -1.170437 4284502583
5.4490185 -1.0136254 -1.334619 4282993220
5.3264117 -1.024696 -1.3052492 4278258692
5.3857126 -1.0703999 -1.3218601 4282602063
5.2544842 -1.0779022 -1.2903236 4278196249
5.316144 -1.1245708 -1.3076566 4289976024
5.2968149 -1.1544846 -1.304527 4288531139
5.27069 -1.1827174 -1.2997123 4287606690
5.2198286 -1.2050022 -1.2886385 4279644450
5.1811709 -1.2296187 -1.2806941 4280235835
5.1320357 -1.2512796 -1.2701018 4280564557
4.9547749 -1.2403585 -1.2267692 4281418314
4.9320288 -1.2668768 -1.2229174 4280099619
4.7636571 -1.2548746 -1.1817515 4280885535
4.7408738 -1.2800359 -1.1778997 4285753947
4.7282529 -1.3078085 -1.1766961 4291542435
4.6444917 -1.3153912 -1.1571964 4293318335
4.6326041 -1.3427845 -1.1562335 4294961357
4.7145472 -1.397927 -1.1795849 4288635721
4.7030945 -1.4259844 -1.1788627 4286728250
4.68962 -1.4533796 -1.177659 4282783753
4.670435 -1.4789066 -1.1750109 4289432434
4.5689158 -1.4776907 -1.1509373 4294697137
4.5035381 -1.4871463 -1.1362524 4294699933
4.4556956 -1.5017414 -1.1261414 4294770331
4.4482331 -1.5296836 -1.1266229 4294573989
4.4405956 -1.5575907 -1.1271044 4294573742
4.4446645 -1.5897079 -1.1307155 4294705062
4.4904556 -1.6372169 -1.1454004 4294112399
4.4785056 -1.6640635 -1.1449189 4294639248
4.4645791 -1.690138 -1.1439559 4294573195
4.4749556 -1.7255268 -1.1494929 4294770333
4.472415 -1.7561429 -1.1516595 4291020441
4.0984015 1.5235283 -1.0994456 4286609769
4.02949 1.4698414 -1.0777531 4286080861
3.0152442 1.0790621 -0.7944895 4285423183
4.1449256 1.4545592 -1.1047425 4291411624
3.1490457 1.0835238 -0.82778496 4282004769
4.0734944 1.3181484 -1.0757351 4281284143
4.0759711 1.291376 -1.0742217 4294243821
3.8943415 1.2076066 -1.0225129 4282923829
3.845191 1.1665576 -1.0071263 4286999645
3.9153614 1.1616522 -1.0242785 4283120418
4.0999298 1.1890717 -1.072456 4282593565
4.720696 1.3377007 -1.2386811 4291270004
4.7194891 1.3061296 -1.2361586 4286664500
4.7255459 1.2766421 -1.2356541 4291535249
4.3065996 1.1351898 -1.1206335 4293835939
4.7380447 1.2178338 -1.2348975 4292188267
4.7388577 1.1870934 -1.2331318 4285151255
4.7469921 1.1582233 -1.233384 4289365873
4.7690735 1.1326507 -1.2374198 4282528039
5.0012741 1.1554079 -1.2977048 4280230443
5.0035486 1.1236391 -1.2964436 4281550421
5.0027857 1.0912675 -1.2944257 4287602341
5.0624022 1.0717701 -1.3085511 4287141278
5.1238618 1.0519711 -1.3231808 4282211692
5.217536 1.037874 -1.3463868 4279913573
5.2637153 1.0135218 -1.3569808 4282872443
5.2917161 0.98527747 -1.3627822 4289448391
5.3281384 0.95826858 -1.3708539 4287541677
5.3606143 0.93018806 -1.3779166 4288793545
5.3881726 0.90094739 -1.383718 4288531401
5.4155731 0.87140334 -1.3895195 4288531403
5.445682 0.84200031 -1.3960778 4289911256
5.4765906 0.81240225 -1.4028882 4285696383
5.5082979 0.78259259 -1.4099509 4287666055
5.539844 0.75242424 -1.4170135 4287991170
5.559711 0.72040677 -1.4210492 4286476648
5.560185 0.68580586 -1.4200404 4284441167
5.5998492 0.65583855 -1.4293731 4286019940
5.6297359 0.62434429 -1.4361836 4284439376
5.6459723 0.59109813 -1.4394627 4289177236
5.6620121 0.5576762 -1.4427418 4287990642
5.6730356 0.52363521 -1.4447597 4288714881
5.6732497 0.48856735 -1.444003 4279243520
5.6992908 0.4555968 -1.4500567 4285362267
5.7483015 0.42403191 -1.4621642 4292202164
1.7788676 0.12052046 -0.42445597 4280427551
5.7183018 0.3513256 -1.4530835 4294175702
5.7010255 0.31516519 -1.4480388 4294503369
5.7163835 0.28084227 -1.4515702 4291277964
5.7131653 0.24555448 -1.4503089 4288052834
1.7797933 0.065826222 -0.42395148 4288121713
1.7917702 0.055259813 -0.42697835 4289238131
1.793043 0.04428836 -0.42723057 4290355329
1.7584509 0.032646686 -0.41815001 4293907647
1.7295903 0.021502076 -0.41058284 4284697157
1.7335603 0.010912601 -0.4115918 4283712056
1.7161766 0.00027660932 -0.4070515 4284106299
1.7103401 -0.010217654 -0.40553808 4284830276
1.7218564 -0.020855168 -0.40856495 4284764993
1.7391109 -0.031741634 -0.41310525 4284107061
1.7224381 -0.042007238 -0.40881717 4283252013
1.7560002 -0.053616244 -0.41764551 4282991164
1.7653084 -0.064746648 -0.42016789 4292077541
1.7987148 -0.077033624 -0.42899624 4280825383
5.6690269 -0.27848396 -1.4392104 4289367930
5.4073067 -0.29887876 -1.3713584 4284505682
5.3754301 -0.3302103 -1.363539 4294964189
5.3848882 -0.36397102 -1.3665658 4294964188
5.3931689 -0.39778897 -1.3693404 4294699734
5.5594287 -0.44437793 -1.4134822 4287853402
5.5739512 -0.4799771 -1.4180224 4286933341
5.6614761 -0.52253526 -1.4417328 4285487954
5.6870532 -0.56011087 -1.4492999 4287531379
5.6854343 -0.59519702 -1.4498044 4281411868
5.6759043 -0.62943065 -1.4482911 4278912000
5.6584802 -0.66266888 -1.4447597 4281550664
5.6629515 -0.69844282 -1.4470298 4281227616
5.6336088 -0.72994232 -1.4404716 4280571238
5.623271 -0.76371402 -1.4389582 4280697681
4.7313375 -0.67210734 -1.2053856 4287340458
5.5627446 -0.8251341 -1.4255896 4280832090
5.5241065 -0.85407376 -1.4167613 4282999652
5.5015655 -0.88518482 -1.412221 4286542944
4.8308101 -0.80765396 -1.2364109 4288776547
4.8333907 -0.83860397 -1.2384288 4289696362
4.8252969 -0.86773127 -1.2376721 4287918419
5.244164 -0.97634619 -1.3501704 4281085736
5.3644514 -1.0328469 -1.383718 4281091645
5.0770912 -1.0098451 -1.3090554 4279116063
5.2963953 -1.0873085 -1.3690882 4282734173
5.1040769 -1.0804927 -1.3196495 4283327585
5.1852751 -1.1309747 -1.3431077 4288063391
5.1999531 -1.1676475 -1.3489091 4291155660
5.1766629 -1.195828 -1.3446211 4284377954
5.044013 -1.1978236 -1.3110734 4278783248
4.8306918 -1.1785073 -1.2558333 4282141007
4.7679892 -1.1942499 -1.2409512 4286088069
4.9564443 -1.2738397 -1.293669 4279506969
4.9382424 -1.3015144 -1.2908944 4278783496
4.7386603 -1.2800436 -1.2391855 4282923829
4.6197381 -1.2783757 -1.2091691 4291271281
4.6192551 -1.3088086 -1.211187 4292053338
4.6102076 -1.3368578 -1.2109349 4291726693
4.6047015 -1.3659459 -1.2116915 4291333728
4.6110492 -1.3986696 -1.2157273 4291529815
4.6060772 -1.4280827 -1.2167363 4291201622
4.5926156 -1.4548566 -1.2154751 4292649335
4.5651889 -1.4770498 -1.2104304 4282913537
4.509181 -1.48955 -1.1975662 4289560160
4.468781 -1.506676 -1.1889901 4294760087
4.4310865 -1.5243071 -1.1811707 4294768288
4.4262156 -1.5530694 -1.1824319 4294507678
4.4211588 -1.5818291 -1.1836931 4294639523
4.4322777 -1.6165549 -1.1894946 4294967206
4.4639974 -1.6592321 -1.2010975 4292856959
4.5016937 -1.7047583 -1.2144662 4294433931
4.5335803 -1.7487189 -1.2263213 4290946140
4.5110569 -1.7719034 -1.2230422 4287196485
4.053184 1.56477 -1.1448475 4282140732
4.0464725 1.5337116 -1.14011 4286674798
3.996136 1.4866368 -1.1227388 4282398502
2.8652396 1.0455987 -0.79163378 4285094987
4.0158944 1.4381369 -1.1232651 4294637524
4.0255532 1.4137888 -1.1235284 4292795574
3.1548927 1.0860401 -0.86980402 4280950806
4.0563097 1.3689135 -1.1274763 4294573040
4.0902777 1.3524863 -1.134846 4294440173
4.0654616 1.3166535 -1.1253707 4289371794
4.1543827 1.317367 -1.1485324 4285946444
3.7855725 1.1747909 -1.0408838 4284832073
4.2043886 1.2766676 -1.1582707 4280359944
4.2620797 1.2656896 -1.1724836 4287593053
4.0983777 1.1897113 -1.1237916 4286141228
4.6021099 1.3055226 -1.2646034 4291006303
4.5970182 1.2736505 -1.2609186 4291664509
4.510694 1.2199569 -1.2343354 4291929472
4.6160326 1.2181277 -1.2619714 4291662173
4.6131434 1.187134 -1.2590762 4292649848
4.6353121 1.1625648 -1.2632874 4283310348
4.6657863 1.1398306 -1.2698674 4283120954
4.8951201 1.1641316 -1.3322457 4280889652
4.9200287 1.1382095 -1.3372464 4278652185
4.9796262 1.1198651 -1.3519857 4294769663
4.9892316 1.0899079 -1.3527752 4282795588
4.9826131 1.0564694 -1.3490905 4280693813
4.9304161 1.0138161 -1.332772 4284579470
4.9583039 0.98788524 -1.3388257 4282870131
5.0419464 0.97244239 -1.3604081 4288530124
5.2469707 0.978679 -1.4156799 4287677632
5.2823095 0.95177555 -1.4238391 4288334021
5.3127613 0.9236477 -1.4306823 4286949538
5.3316483 0.8932665 -1.4343671 4288663757
5.3675065 0.8654561 -1.4427896 4288138703
5.3879695 0.83487231 -1.4470007 4288531400
5.4177999 0.80549067 -1.4538438 4290502611
5.4484277 0.7759105 -1.4609503 4286884006
5.4779391 0.7458542 -1.4677935 4288530888
5.4900661 0.71322405 -1.4698991 4288005573
5.5192318 0.68260831 -1.4767423 4289781210
5.543437 0.6510976 -1.4822694 4290045920
5.5300694 0.61514801 -1.4775318 4290307036
5.5625229 0.58423376 -1.4854279 4291814360
5.5746431 0.55094755 -1.4877967 4284905843
5.5827217 0.5171777 -1.4891126 4292410365
1.8037094 0.15514152 -0.45342231 4284509789
1.8363612 0.14662535 -0.4621079 4285028690
1.833378 0.13506892 -0.4610551 4294704123
5.5889201 0.37968716 -1.4877967 4285961877
5.5795898 0.34467086 -1.4846382 4290434778
5.5902691 0.31091258 -1.487007 4290433758
5.5853267 0.27627045 -1.4851646 4291223264
5.3353572 0.23104538 -1.4164696 4291286989
1.8139694 0.066631004 -0.45473829 4287396705
1.7950587 0.054897055 -0.4494743 4289105766
1.7837884 0.043591328 -0.44631591 4290487418
1.757979 0.032151721 -0.43920952 4293184429
1.7185922 0.020857396 -0.42841834 4284237371
1.7051816 0.01022168 -0.42473355 4283777596
1.6936355 -0.00024762406 -0.42157516 4284238657
1.6800958 -0.010564065 -0.41789037 4284370494
1.6799995 -0.02087274 -0.41789037 4284502334
1.6740521 -0.031077238 -0.41631117 4284304955
1.6998705 -0.041973494 -0.42341754 4283186221
5.2943821 -0.19328427 -1.4048887 4287666568
1.7576063 -0.075750247 -0.43947273 4290109405
1.8101065 -0.08910796 -0.45394871 4288330413
5.2513957 -0.28859484 -1.3943608 4290820519
5.3024883 -0.32403618 -1.4088367 4293519043
5.2657475 -0.35424209 -1.3993616 4287990382
5.3423719 -0.392322 -1.420944 4289769373
5.3350558 -0.42471302 -1.4196279 4292728757
5.3650312 -0.46023679 -1.4285767 4294504138
5.4062991 -0.49720198 -1.4406838 4289174656
5.5087624 -0.54070914 -1.4696358 4282597423
5.5370059 -0.57779771 -1.4783214 4284178775
5.5400691 -0.61250198 -1.4801638 4284902749
5.5227909 -0.64491993 -1.4764791 4286219896
5.5484138 -0.68243974 -1.4846382 4283789933
5.5211587 -0.71350861 -1.4783214 4285432459
5.4535785 -0.73883766 -1.4609503 4285035899
4.7602262 -0.67482299 -1.2711834 4293589241
5.4202418 -0.80217987 -1.4543703 4279770400
5.4037757 -0.83366013 -1.4512119 4278718736
4.8622599 -0.78081012 -1.3030305 4285228892
4.8459578 -0.80872679 -1.2998722 4288710505
4.8275952 -0.83614397 -1.2961873 4289234529
4.8356686 -0.86813325 -1.2998722 4289366114
5.299777 -0.98494202 -1.4301559 4279042560
5.2794228 -1.0147141 -1.4262079 4279770401
5.2617412 -1.0448365 -1.4230496 4279636497
4.8497672 -0.99409145 -1.3101369 4291742407
4.7878842 -1.012072 -1.2946081 4294900726
4.7862983 -1.0424563 -1.2959241 4294963955
4.9633875 -1.112923 -1.3472481 4281674278
4.9809074 -1.1489893 -1.3540913 4281020467
4.9709477 -1.1788628 -1.3533016 4280629310
4.9758067 -1.2123078 -1.3567232 4280301375
4.977634 -1.245155 -1.3593552 4279906363
4.9334545 -1.2663277 -1.3490905 4281223506
4.8948016 -1.2884778 -1.3404049 4280170042
4.845818 -1.3074394 -1.328824 4280431929
4.5801129 -1.2660141 -1.2559178 4279834643
4.527698 -1.2814932 -1.2432842 4290611572
4.5178962 -1.3087142 -1.2427578 4291530078
4.5134816 -1.3375062 -1.2438107 4291595358
4.4857993 -1.3593048 -1.2382834 4291858782
4.4967279 -1.3927928 -1.2438107 4291989338
4.4890175 -1.4206491 -1.2440737 4292120155
4.4967403 -1.4535033 -1.2488114 4291398492
4.4886537 -1.4813695 -1.2490746 4290609752
4.4639363 -1.503652 -1.2446002 4288375094
4.4473262 -1.528507 -1.2424946 4288509232
4.4314904 -1.553534 -1.2406522 4293250696
4.4345937 -1.5852391 -1.244337 4289899614
4.4456334 -1.6200114 -1.2503906 4294966701
4.4835467 -1.6650476 -1.2643402 4294439072
4.4804645 -1.6952564 -1.2664458 4293977481
4.4645772 -1.7206358 -1.2648666 4294966674
4.4647126 -1.7522243 -1.2680249 4294638986
4.4825482 -1.7910339 -1.2764474 4294573480
4.0105762 1.5479664 -1.1863303 4284109633
4.0613637 1.5389993 -1.1989555 4281543444
2.8215194 1.0495504 -0.81855023 4281543193
3.9950292 1.4580617 -1.173156 4294244274
4.0283446 1.4422708 -1.1805665 4289899630
3.1933084 1.1213304 -0.92531621 4289436271
3.9766366 1.3689463 -1.1597074 4294834608
3.9785833 1.3423691 -1.1577861 4292792960
3.9958754 1.3209491 -1.1605308 4294634158
3.9636514 1.2833765 -1.1484544 4288446553
3.7221184 1.1800134 -1.0738006 4282790172
4.1168661 1.2773714 -1.1896238 4285288506
4.2111216 1.2783351 -1.2154233 4288446050
4.4733186 1.3279818 -1.291175 4290945660
4.1249046 1.1970903 -1.1852324 4290548070
4.5022302 1.2766589 -1.2950175 4282124288
4.4914446 1.2438782 -1.2895283 4291597425
4.5092034 1.2190554 -1.2925473 4292516209
4.5100899 1.1896484 -1.2906262 4292121469
4.5070605 1.1593184 -1.2876071 4284232996
4.52808 1.1351479 -1.291724 4283445810
4.8198819 1.17689 -1.3754351 4279505429
4.8606925 1.155296 -1.3853158 4294046452
4.8789325 1.1280481 -1.3886093 4282532677
3.1772821 0.7142424 -0.88881266 4287203208
4.836978 1.0559944 -1.372416 4291217346
4.8490109 1.027491 -1.3740628 4288454039
4.7836375 0.98301381 -1.3532037 4294637801
4.7697744 0.94970173 -1.3474399 4293320395
4.8529387 0.93533373 -1.3699459 4294574065
5.0419812 0.93970513 -1.4231917 4288859588
5.2473416 0.94468594 -1.4811033 4288267969
5.267251 0.91493851 -1.4852202 4288793025
5.2907853 0.88561708 -1.490435 4287475106
5.3179555 0.85665256 -1.4967476 4288859075
5.3516202 0.82841706 -1.5049815 4289977299
5.3680162 0.79725885 -1.508275 4283661681
5.3870878 0.7663368 -1.512392 4288992721
5.4136038 0.73624671 -1.5187047 4287218112
5.4151587 0.70264459 -1.5178813 4287482305
5.4317746 0.67093617 -1.5214493 4287544757
5.0805073 0.59594715 -1.4193492 4289250234
4.8957901 0.54386204 -1.36528 4278719748
4.8607812 0.50980276 -1.3543015 4289574050
4.7977872 0.47345728 -1.3353635 4278585602
4.8197527 0.44577938 -1.3408529 4278980877
4.7846017 0.38337749 -1.3293254 4281548082
4.7782331 0.35337496 -1.3268552 4280167972
4.8071742 0.32586843 -1.3345401 4292145645
4.8253999 0.29737025 -1.339206 4287082157
5.4176111 0.30046248 -1.5080006 4287608248
5.381896 0.26537073 -1.4972966 4287675832
5.2047315 0.22464374 -1.4462465 4288594098
1.7850574 0.06632898 -0.46915913 4283647552
1.8104205 0.056144468 -0.47629517 4288316776
1.8078469 0.044963773 -0.47547179 4289696622
1.7600172 0.032979947 -0.46174866 4292262813
1.7140332 0.021608613 -0.44857445 4281803277
1.7141336 0.011091097 -0.44857445 4283580470
1.6939758 0.00057095906 -0.44281071 4284370497
1.6881779 -0.0097883204 -0.44116396 4284896581
1.6871245 -0.020134905 -0.44088948 4284501310
1.6917765 -0.030574504 -0.44226179 4284435775
1.7011702 -0.041189414 -0.44500643 4283514415
5.1753316 -0.18966702 -1.4374636 4287866528
5.2173028 -0.22327198 -1.4498146 4287802788
5.1514845 -0.25212628 -1.4314256 4286949021
5.1997681 -0.28648496 -1.4456975 4292601057
5.1460834 -0.3152062 -1.4308766 4291411389
5.1728349 -0.34871852 -1.4391105 4289051307
5.1773109 -0.38094637 -1.4410317 4289510826
5.3033214 -0.42295995 -1.4778097 4287402111
5.3025427 -0.45565733 -1.4783586 4281543205
5.3120947 -0.48933214 -1.4819267 4294962655
5.3262177 -0.52361196 -1.486867 4294368713
5.3563781 -0.55978388 -1.4964732 4294174683
5.3451967 -0.59179235 -1.4942775 4294634721
5.3433747 -0.62480217 -1.4948264 4283450173
5.3470759 -0.6585176 -1.4970222 4281084459
5.3620076 -0.69378346 -1.5025114 4279966750
5.3557434 -0.72641248 -1.5019624 4282140222
5.3588018 -0.76034224 -1.5041581 4286613878
4.7576299 -0.70480698 -1.33207 4294179562
5.3614221 -0.82795447 -1.5077262 4281809457
4.8616018 -0.78130317 -1.3647311 4284505155
4.865252 -0.812545 -1.3672012 4284965185
4.8516479 -0.8409037 -1.3647311 4286937700
4.8397717 -0.8694663 -1.3628098 4294766309
4.849472 -0.90196067 -1.3672012 4289240733
4.830626 -0.92915559 -1.3633587 4288584070
4.830493 -0.9599033 -1.3650055 4289243276
5.2003593 -1.0666429 -1.4745162 4281678122
5.1701975 -1.0935553 -1.4676546 4278785301
5.0290375 -1.0959686 -1.4284065 4281415744
4.9377751 -1.1078529 -1.4037048 4280819993
4.8390636 -1.1169285 -1.3768075 4281610287
4.9958491 -1.1854639 -1.4248384 4280757547
4.9856787 -1.2154121 -1.424015 4279906350
4.966001 -1.2429447 -1.420447 4283131752
4.9135756 -1.2619073 -1.4072728 4287145638
4.865756 -1.2814987 -1.3954709 4278524445
4.8188105 -1.3008018 -1.3839434 4280038706
4.7625451 -1.3170139 -1.3696713 4280368700
4.6155939 -1.3069037 -1.3285019 4281414440
4.4163079 -1.2797812 -1.2716882 4290680185
4.4111376 -1.3076752 -1.2725116 4291529825
4.4149938 -1.3383442 -1.2760797 4291923807
4.392921 -1.3611388 -1.2719626 4292317023
4.3817368 -1.3871968 -1.2711393 4292186466
4.3740573 -1.4143524 -1.2714137 4291857752
4.3716884 -1.4432752 -1.273335 4292318050
4.3700404 -1.4725294 -1.2755307 4292185947
4.3800187 -1.5058827 -1.2812943 4288900150
4.3824925 -1.5368674 -1.2848624 4290023009
4.4245887 -1.5821886 -1.3005068 4294638761
4.4120874 -1.6083195 -1.2996835 4294704536
4.4138536 -1.6397154 -1.3032514 4294573719
4.4306889 -1.6769814 -1.3114853 4294372740
4.4822226 -1.7280084 -1.3304232 4294700931
4.4778008 -1.7579386 -1.3323444 4294768262
4.4713941 -1.7871655 -1.3337168 4294573471
4.4763765 -1.8210918 -1.3386571 4280954639
4.0226879 1.6099893 -1.2483555 4294635232
4.0396261 1.5880836 -1.2506369 4286145868
2.6331043 1.0160948 -0.7989015 4284505422
2.6966436 1.0216757 -0.81715345 4281741336
4.0205665 1.495733 -1.2355222 4294963897
4.0098624 1.4637988 -1.229248 4294171541
3.9862874 1.4275252 -1.2189813 4293579412
3.1703095 1.1131603 -0.95889115 4282201610
3.9572904 1.3625727 -1.2044368 4294375575
3.9501393 1.3330512 -1.1995885 4294966437
3.9163876 1.2949355 -1.18647 4284499224
3.5823486 1.1600447 -1.0795251 4286469932
4.0333886 1.2789638 -1.2181257 4288902214
4.1766276 1.2962753 -1.2603333 4289692259
4.3917561 1.3336165 -1.3247855 4286929481
4.293282 1.2749647 -1.2917038 4290219640
4.2586861 1.2362949 -1.2785853 4288503622
4.3722243 1.240248 -1.3113817 4289031760
4.4111547 1.222106 -1.3210781 4291466862
4.4148703 1.1940147 -1.3199373 4286205741
4.415626 1.1651896 -1.3179411 4286274123
4.4765272 1.1519415 -1.3344818 4282463529
4.7289305 1.1860691 -1.4097711 4293522157
4.7742915 1.1663659 -1.4214637 4284308577
3.1095386 0.73905486 -0.91012424 4294441460
4.6491146 1.0754695 -1.378971 4281152303
4.7173409 1.0608166 -1.3977933 4289902515
4.7228251 1.0316467 -1.397508 4288585625
4.7440667 1.005833 -1.402071 4292665292
4.7492108 0.97651178 -1.4017859 4294768612
4.7504134 0.94641531 -1.4003599 4294966509
4.7476616 0.91561395 -1.3977933 4294111976
4.7324624 0.88259465 -1.3915192 4291876035
4.7217531 0.85064727 -1.3866709 4294178531
4.7146087 0.81952226 -1.3829635 4294574058
4.716712 0.79010278 -1.382108 4292732366
4.7252564 0.76175785 -1.3832487 4292337620
4.6872206 0.72613627 -1.3704153 4288127642
5.2916851 0.786713 -1.5509384 4289707956
1.8700451 0.26553595 -0.52112979 4285037680
1.8763875 0.25470412 -0.52255577 4286283897
1.8741132 0.24269132 -0.521415 4294833651
1.8670062 0.23012678 -0.5188483 4290754484
1.8950365 0.22180294 -0.52683353 4288716431
1.895409 0.21006486 -0.52654833 4282003492
1.8985687 0.19863154 -0.52711874 4286146648
1.8968904 0.18669499 -0.52626318 4285224253
1.8989546 0.17514099 -0.52654833 4286148186
1.8980838 0.16332041 -0.52597797 4281345564
1.896184 0.15144025 -0.5251224 4283386947
1.8922983 0.13944748 -0.52369648 4290358679
1.8998121 0.12829007 -0.52569282 4289435005
1.8986503 0.11651203 -0.5251224 4289302400
1.8964584 0.10469966 -0.52426684 4288643700
1.8922787 0.092823491 -0.52284092 4288840048
1.8746189 0.080419064 -0.51742238 4286407498
1.8223978 0.066946037 -0.50173712 4281539845
1.8227743 0.055762764 -0.50173712 4288119130
1.8115841 0.04428884 -0.49831489 4290025834
1.7409077 0.031828124 -0.47721109 4292985757
1.7381949 0.021108665 -0.47635552 4282922276
1.7114551 0.010263597 -0.46837035 4283581749
1.6980673 -0.00024520676 -0.46437773 4284106810
1.7009093 -0.010680422 -0.4652333 4284961608
1.7123125 -0.021251673 -0.4686555 4284830022
1.7255663 -0.031997502 -0.47264811 4284829506
1.8821617 -0.057906508 -0.51941872 4283186737
1.8865602 -0.069627926 -0.52084464 4284502346
1.8841823 -0.081121065 -0.52027422 4285946698
1.8884358 -0.092913203 -0.5217002 4289171307
1.8849591 -0.10434153 -0.52084464 4283052590
1.8804564 -0.11567245 -0.51970387 4284898891
1.8854493 -0.12759326 -0.521415 4287791446
1.8817631 -0.1389498 -0.52055943 4288185691
1.8980736 -0.15185881 -0.52569282 4289438331
1.8932861 -0.16317545 -0.52455205 4291609759
1.9142019 -0.17680351 -0.53111136 4289506953
1.8892334 -0.18620986 -0.52398169 4287403893
1.8842419 -0.19740134 -0.52284092 4284243529
1.8820425 -0.208854 -0.52255577 4281282594
1.8750134 -0.21973224 -0.52084464 4283519562
5.1452456 -0.63293689 -1.5016011 4289637533
5.2258687 -0.67541087 -1.5269828 4283650887
5.1636868 -0.69962656 -1.5095863 4283391058
5.1422143 -0.72887981 -1.5044531 4279839007
5.2675447 -0.77961457 -1.5435236 4284509027
4.7909079 -0.73924524 -1.4015007 4284573004
4.8970089 -0.78638196 -1.4348675 4283581746
4.8656192 -0.81200325 -1.4268823 4288647032
4.8463788 -0.8393926 -1.4226044 4290356359
4.8703837 -0.87435699 -1.4314452 4289762428
5.0788455 -0.94393253 -1.4961826 4290361258
5.2282701 -1.004894 -1.5432384 4284971887
5.0311542 -0.99910057 -1.4853455 4289184433
5.0700011 -1.03918 -1.4990345 4286620572
5.01195 -1.0593793 -1.4833492 4288400333
5.0025458 -1.0895009 -1.4824936 4288070337
4.9873486 -1.1182899 -1.4799269 4283527265
4.9439678 -1.1404769 -1.4688047 4280232986
4.8361497 -1.1469281 -1.4380045 4280692776
4.9398437 -1.2035545 -1.4719417 4284381556
4.887732 -1.2226877 -1.4582528 4285899932
4.8550701 -1.246227 -1.4505527 4285899672
4.8213773 -1.2691681 -1.4425676 4286422418
4.7681527 -1.286504 -1.4285934 4280761399
4.7278328 -1.306807 -1.4186119 4280500294
4.686522 -1.3264033 -1.4083451 4280760637
4.3763084 -1.2677382 -1.314804 4280822052
4.3151431 -1.2787853 -1.2982632 4290285173
4.3053808 -1.304683 -1.2976928 4291923302
4.293632 -1.3299423 -1.2965521 4292055909
4.2844772 -1.3559736 -1.2962668 4291857762
4.2696915 -1.3801751 -1.2942705 4292120934
4.2693348 -1.4090489 -1.2968372 4292186725
4.272418 -1.4391932 -1.3005446 4292252768
4.2626004 -1.4650698 -1.3002595 4291792219
4.2544351 -1.4915138 -1.3005446 4291202905
4.3824015 -1.5665965 -1.3438929 4286535713
4.405129 -1.6052626 -1.3541597 4294704553
4.4023852 -1.6349295 -1.3564411 4294573203
4.4048223 -1.6666567 -1.3604338 4294966425
4.4812732 -1.7270656 -1.3880969 4293448317
4.4777303 -1.7573293 -1.3903784 4294829705
4.4793248 -1.7897468 -1.394371 4291936897
4.4869056 -1.8247759 -1.4003599 4281476372
4.0332074 1.6426187 -1.3103087 4286218107
2.6173141 1.0474327 -0.83373779 4294306007
2.5321341 0.99537706 -0.80321121 4286145868
4.0115714 1.5201364 -1.2901552 4292924053
2.715637 1.0101796 -0.85804057 4294895290
4.039793 1.4743948 -1.2934153 4283909399
3.1603472 1.1315894 -1.0005969 4282920980
3.9323201 1.3807397 -1.2522192 4293060516
3.9425244 1.3572069 -1.2528119 4293976737
3.8946693 1.3140652 -1.2344368 4285287710
3.8591306 1.2757583 -1.2202107 4294561444
3.9886458 1.2914668 -1.259925 4288640082
4.1631064 1.3197708 -1.3141615 4281668611
4.292448 1.3318334 -1.3535794 4281935645
4.2584991 1.2927125 -1.3399462 4280488458
4.2361364 1.2575914 -1.3301659 4291473046
4.2382693 1.2299787 -1.3283876 4285676316
4.2880044 1.2159318 -1.3420209 4291994000
4.3110323 1.1939303 -1.3470591 4283574300
4.3173552 1.1672066 -1.3467628 4290417548
4.3475232 1.1467818 -1.3541722 4294304737
4.6153226 1.1871564 -1.4377499 4279833876
3.0355556 0.76111716 -0.93005967 4293062121
4.7241821 1.1535305 -1.4679801 4278723354
4.6782064 1.1119374 -1.4510868 4283192893
4.6095676 1.0657907 -1.4270804 4292928975
4.5302911 1.0182258 -1.3998139 4293717477
4.5205903 0.98694736 -1.3947755 4287795597
4.7395906 1.0043139 -1.4623491 4294112235
4.7718592 0.98059434 -1.4706476 4294769908
4.7253308 0.94085634 -1.4540505 4289051313
4.6794343 0.90190738 -1.4377499 4288793282
4.6426291 0.86530656 -1.4244131 4291687412
4.6252918 0.83274394 -1.4173 4293459455
4.6237273 0.8032043 -1.4152254 4294180863
4.6295104 0.77497619 -1.4155217 4294245112
4.6662383 0.75171745 -1.4255985 4294966007
4.7066288 0.72862107 -1.4368608 4288387733
4.7336841 0.70309389 -1.4439738 4290757556
4.6528087 0.66193545 -1.4173 4289114531
4.6283917 0.62951487 -1.4084088 4287010701
5.1729841 0.6712386 -1.5776389 4292733665
4.8888512 0.60391277 -1.4875408 4279636495
4.7928638 0.56222838 -1.4564215 4290753964
4.7088933 0.52311498 -1.429155 4281803544
4.7291126 0.49600372 -1.4344897 4280555279
1.8835304 0.18610705 -0.54625416 4285826929
4.6692228 0.43186897 -1.41404 4281411878
4.6765418 0.40362126 -1.4155217 4281608744
4.6932111 0.37606204 -1.4199674 4280228374
4.6906681 0.34690616 -1.4184855 4279439369
4.6955667 0.31831175 -1.4193747 4280163608
4.6783662 0.2883209 -1.4134471 4280756771
4.6838617 0.25982085 -1.4146327 4281413428
4.9715428 0.24516648 -1.5035452 4291618274
4.9414649 0.21330033 -1.4937648 4289969072
1.8264974 0.067859828 -0.52610064 4289842874
1.8450172 0.057209995 -0.53173178 4286740046
1.8367405 0.045676216 -0.52906442 4289103705
1.7596385 0.032972932 -0.50505805 4290416742
1.7254279 0.021749698 -0.49438855 4282788119
1.7121581 0.011078759 -0.49023935 4283843638
1.7169693 0.00057346729 -0.49172118 4283975226
1.7207607 -0.0099846926 -0.49290672 4284172607
1.7244869 -0.020589357 -0.4940922 4284698436
1.736742 -0.031397406 -0.49794504 4284435517
1.7537029 -0.042473283 -0.50327981 4283646514
4.9398856 -0.18102075 -1.4928757 4291681503
4.9529953 -0.21194148 -1.4973212 4293060327
4.954463 -0.24246879 -1.4982104 4292665567
4.9500213 -0.27270639 -1.4973212 4278655769
4.9377685 -0.30243093 -1.4940611 4292409591
4.9806066 -0.33574536 -1.5079907 4290438885
4.9193983 -0.36194986 -1.4896156 4290636777
5.0075288 -0.39934778 -1.5177711 4288660934
5.0420947 -0.43325758 -1.5293298 4289839804
5.0849915 -0.46839559 -1.5435557 4287596925
4.8983812 -0.51188636 -1.4872445 4288718241
4.9805822 -0.55139762 -1.5139183 4280691752
4.9714131 -0.58128154 -1.51214 4281809198
5.0426373 -0.62100244 -1.5355536 4288979603
5.0302072 -0.65082818 -1.5328863 4282071079
5.0687075 -0.68746006 -1.5462232 4282600772
5.0870881 -0.72176987 -1.5533361 4280759354
4.9909225 -0.73938662 -1.5245878 4285106063
4.933435 -0.76183003 -1.5079907 4293590271
4.9343252 -0.79299635 -1.509769 4281742389
4.8615422 -0.81192499 -1.48843 4285036151
4.8809352 -0.84598219 -1.4961357 4287803055
4.8718925 -0.87523937 -1.4949503 4288461245
4.864553 -0.9047668 -1.4943575 4287603877
5.0005274 -0.96184933 -1.5391101 4282142547
4.9823532 -0.99009299 -1.5352572 4289577150
5.0210924 -1.02986 -1.5494833 4286756530
5.019351 -1.061638 -1.5509651 4286561722
5.015542 -1.0930264 -1.5518543 4286364081
5.0087404 -1.1237806 -1.5518543 4279515691
4.9775558 -1.148906 -1.5441484 4280299815
4.9127989 -1.1657503 -1.5257733 4282138171
4.8034863 -1.1709827 -1.493172 4281681220
4.8703294 -1.2189913 -1.5168821 4285633163
4.8239059 -1.2388711 -1.5044342 4285633410
4.788507 -1.2611473 -1.495543 4285237631
4.751173 -1.2825379 -1.4860591 4282474076
4.6787791 -1.2938423 -1.4653127 4280304203
4.6294007 -1.3108143 -1.4519759 4280304206
4.5873299 -1.3293566 -1.44101 4280565576
4.3813047 -1.2988285 -1.3769931 4280561190
4.2178764 -1.2785728 -1.3266094 4290812030
4.2008295 -1.3016018 -1.3236456 4292121449
4.188211 -1.3259114 -1.3221637 4291860581
4.1854491 -1.3533483 -1.3239419 4291662175
4.1816006 -1.3805017 -1.3254238 4291858528
4.1766715 -1.4073536 -1.3266094 4292055909
4.1670542 -1.4326442 -1.3263129 4291990368
4.1572843 -1.4578696 -1.3260165 4292055393
4.1554551 -1.485924 -1.3283876 4291267413
4.1579237 -1.5156468 -1.3322405 4288507709
4.4162292 -1.6405983 -1.4208566 4290422128
4.483788 -1.6970842 -1.4466412 4293320331
4.507153 -1.7376221 -1.4579034 4293848704
4.4981842 -1.7659429 -1.4584961 4294704777
4.4890375 -1.7942191 -1.4590889 4294703255
4.4814825 -1.8231695 -1.4602743 4289834619
4.712256 -1.9848175 -1.5456303 4281414446
4.0056763 1.6604974 -1.3559555 4286610547
3.9990432 1.6290609 -1.3501283 4285293144
2.5678654 1.0272734 -0.84991324 4285422915
2.5714631 1.0104525 -0.84899318 4285294156
4.0132575 1.5493438 -1.3449146 4294964929
4.0066705 1.5186133 -1.3393941 4290094699
2.6725814 0.99383581 -0.87751555 4291999364
3.9364977 1.436994 -1.3090316 4288712044
3.1567652 1.1302069 -1.0391424 4287529043
3.9547334 1.3888947 -1.3093382 4294762673
3.3737671 1.1614715 -1.1084548 4287986506
3.9750862 1.3414778 -1.310565 4292786572
4.1196871 1.3622197 -1.3568755 4286141495
4.1587524 1.3468953 -1.367303 4281999126
4.1914334 1.3291268 -1.3755838 4281475353
4.194056 1.3016895 -1.3737437 4281672479
4.1791973 1.269011 -1.3660764 4280814090
4.1476736 1.2316824 -1.3528886 4288642669
4.1807451 1.2136463 -1.3614759 4288311912
4.200932 1.1916106 -1.3657696 4287260764
4.220088 1.1691183 -1.3697566 4292523688
4.2492318 1.1491718 -1.3771173 4286008906
2.9973085 0.7905367 -0.95756221 4291342508
4.5939102 1.1821797 -1.4872197 4280497463
4.6518517 1.1667173 -1.5040878 4280431672
4.699604 1.1481006 -1.5175823 4279509022
4.6324849 1.1016085 -1.4930469 4283850823
4.6039214 1.0650033 -1.4813926 4289179544
4.5091553 1.0139476 -1.4479631 4294506483
4.4827476 0.9791438 -1.4372289 4294572788
4.4821539 0.95023626 -1.4350821 4294573550
4.480442 0.92118102 -1.4326285 4294835699
4.5261469 0.90167874 -1.4458163 4294705137
4.5315943 0.8738898 -1.4458163 4294639092
4.5153518 0.84204924 -1.4387623 4294309365
4.4735985 0.80587846 -1.4234277 4294311423
4.4784594 0.77841383 -1.4234277 4294573566
4.4756417 0.74966007 -1.4209743 4294967291
4.4698215 0.72051501 -1.4176006 4289572010
4.4826231 0.69438875 -1.4203608 4294244336
4.487741 0.66701096 -1.4206675 4294441705
4.494576 0.63986528 -1.4215876 4294836207
5.030314 0.68481082 -1.5945621 4281350705
5.0202641 0.65209019 -1.5899616 4279246353
4.9552155 0.61273122 -1.5675731 4289243042
4.9324141 0.57920069 -1.5589857 4278650624
4.8450637 0.53880411 -1.5295433 4281543456
1.8447767 0.19297035 -0.55640888 4288318342
4.6135702 0.45576075 -1.4525635 4281676078
4.644712 0.43008372 -1.4617642 4281806888
4.7145891 0.40741101 -1.4835395 4279702539
4.7492571 0.38107139 -1.4939669 4279175687
4.8568664 0.35975292 -1.5280098 4278584579
4.7735181 0.32412094 -1.5004075 4279966491
4.6699681 0.28828898 -1.4663646 4280754719
4.6783018 0.26000056 -1.4685115 4279901478
4.8471208 0.23960114 -1.5224893 4292736763
4.8456473 0.20973109 -1.5215693 4285892992
1.8003271 0.066121064 -0.53923404 4292013791
1.8140177 0.055489242 -0.54352772 4288318827
1.8029059 0.04407106 -0.53984749 4289893749
1.746044 0.031925488 -0.52144599 4292393881
1.7271725 0.020967379 -0.51531208 4280815875
1.7091846 0.010248426 -0.50948489 4284172094
1.7092153 -0.00023912656 -0.50948489 4284632127
1.6977601 -0.010662817 -0.50580466 4285026884
1.6948075 -0.021046394 -0.5048846 4285159240
1.6898882 -0.031360138 -0.50335109 4285027912
1.6972762 -0.041911226 -0.50580466 4283646514
4.8555117 -0.17735942 -1.5243294 4280366649
4.8372154 -0.20642264 -1.518809 4288066481
4.840611 -0.23633027 -1.5203425 4288990665
4.8457227 -0.2663914 -1.5224893 4288464580
4.8582473 -0.29698685 -1.5270897 4288465095
4.8135986 -0.32392552 -1.5132886 4288465095
1.8260729 -0.13487236 -0.54874158 4291813330
4.823493 -0.38410124 -1.5178889 4288270541
4.8381157 -0.41515103 -1.5234094 4288269258
4.8354774 -0.44482931 -1.5234094 4288990924
4.823184 -0.47356313 -1.5203425 4286291091
4.8268147 -0.50383884 -1.5224893 4290238671
4.8321466 -0.53438568 -1.5252496 4289253835
4.8259406 -0.56369448 -1.5243294 4288859590
4.8110547 -0.59190333 -1.5206492 4285896325
4.8979549 -0.63310421 -1.5500916 4290168489
4.9722648 -0.67373478 -1.5755471 4285365090
4.9906554 -0.70743215 -1.5829077 4286751640
4.9626813 -0.73456228 -1.5752404 4283725683
4.8498988 -0.74833304 -1.5399708 4289248692
4.8734097 -0.78259802 -1.5491716 4279773738
4.8807216 -0.81451988 -1.5531585 4283796363
4.8746939 -0.84428984 -1.5528518 4286167993
4.8703585 -0.87435246 -1.5531585 4286166964
4.864902 -0.90421999 -1.5531585 4285704612
4.8396325 -0.93028504 -1.546718 4287604885
4.6181669 -0.9171865 -1.4758722 4284046920
4.6105871 -0.94512397 -1.4752587 4286877052
4.6112199 -0.97477251 -1.4774055 4280231455
4.6321239 -1.0089158 -1.4862996 4285364591
4.8208933 -1.0810064 -1.550705 4286811255
4.787272 -1.1043683 -1.541811 4286218607
4.9063649 -1.1635625 -1.5835211 4284111699
4.7576375 -1.1592057 -1.5365971 4278391309
4.8243079 -1.2068377 -1.5611326 4288263078
4.784543 -1.2281413 -1.5503983 4284382823
4.7456198 -1.2492448 -1.5399708 4283989102
4.7047811 -1.2694218 -1.5289298 4285766293
4.6556172 -1.2868648 -1.5151287 4278263591
4.5963435 -1.3009038 -1.4979539 4280368716
4.5169597 -1.3084432 -1.4740319 4280172368
4.4632139 -1.322624 -1.4586973 4280696659
4.1735234 -1.2647629 -1.3639295 4280032533
4.1120377 -1.2737458 -1.3458346 4289959031
4.1041451 -1.2989527 -1.3458346 4291859053
4.09338 -1.3232332 -1.3449146 4291333210
4.0933189 -1.3510077 -1.3476747 4291989349
4.0939732 -1.3791344 -1.3507417 4291726942
4.1016378 -1.4097933 -1.3562622 4291924323
4.0866222 -1.4327312 -1.3541152 4291792737
4.0840287 -1.4600204 -1.3562622 4291596896
4.0624723 -1.4804929 -1.3519684 4291134807
4.0470653 -1.5030738 -1.3498216 4289757263
4.4143629 -1.6702641 -1.4795524 4292002187
4.4466658 -1.7137378 -1.4942737 4293649555
4.4741688 -1.7559329 -1.5074614 4294570119
4.4633107 -1.7833527 -1.5074614 4294965389
4.4884367 -1.8253982 -1.5200357 4294967223
2.6856432 -1.1313318 -0.89775729 4282204742
2.7014015 -1.1575271 -0.90573132 4284701259
2.6532309 -1.1562259 -0.89131677 4288448621
2.4858356 1.0298971 -0.86039877 4286610547
2.4929862 1.0149823 -0.86071658 4285293144
2.5053301 1.0021306 -0.86294121 4289899157
3.9967401 1.5700687 -1.3978006 4294303107
2.6342123 1.0163466 -0.90489095 4294438332
3.9474287 1.495052 -1.3733299 4282991152
3.8978696 1.4490032 -1.352355 4288189804
3.1878302 1.1629148 -1.0958894 4285292338
3.9278557 1.4055324 -1.3568043 4287071331
3.2859623 1.1532127 -1.1257627 4280684544
3.9717062 1.3664773 -1.3663383 4283118878
4.0563869 1.3678265 -1.3933513 4281208846
4.1016164 1.3551029 -1.4063811 4280749061
4.1044412 1.3281595 -1.4044744 4281406478
4.1179366 1.3046678 -1.4063811 4286208854
4.1204305 1.2776916 -1.4044744 4288120183
4.1218414 1.2504587 -1.4022498 4293975233
4.1121655 1.2200217 -1.3962115 4291209106
4.1396084 1.2005754 -1.4032031 4287257409
2.927206 0.82963407 -0.97830296 4294958792
4.1476326 1.1479158 -1.4009786 4286467626
4.3211942 1.1674378 -1.4588183 4282069287
4.5290685 1.1938102 -1.5284169 4280038456
4.56845 1.1742567 -1.5395398 4280104245
4.627995 1.1593316 -1.5576545 4279907379
4.6820002 1.1423712 -1.5738624 4280102958
4.7221322 1.1215062 -1.5853032 4284639839
4.7557158 1.0986979 -1.5945195 4280362527
4.5477371 1.0213145 -1.5207896 4294638330
4.4835124 0.97803879 -1.4966367 4294901753
4.4894295 0.95051008 -1.4966367 4294967287
4.5035367 0.9246611 -1.4994969 4294835961
4.515635 0.89830488 -1.5017215 4294639608
4.5117507 0.8687886 -1.4985435 4294639604
4.498354 0.83761877 -1.4921875 4294835958
4.4670138 0.80345875 -1.4797933 4294967291
4.4662547 0.77506232 -1.4778864 4294638581
4.4727969 0.74795592 -1.4785221 4289638814
4.4819822 0.72125012 -1.480111 4294704867
4.4797645 0.69272184 -1.4778864 4294770656
4.517695 0.67022771 -1.4893273 4293518532
4.6005769 0.65369266 -1.5160226 4283717185
4.920186 0.66830587 -1.6228038 4279116824
4.9354782 0.63956499 -1.6266174 4284378723
4.9336634 0.60857338 -1.6247106 4279966742
4.9231787 0.57663614 -1.6199436 4280690725
1.9015616 0.21114454 -0.59980184 4289634455
4.7742872 0.49989852 -1.5675064 4279178004
4.8159523 0.47440246 -1.5805362 4280361249
4.6667643 0.43082315 -1.5293702 4280491804
4.7363915 0.40795174 -1.5519341 4280165412
4.7444763 0.37933502 -1.5538409 4280956217
4.7618442 0.35133135 -1.5589257 4290434007
4.7563419 0.32159552 -1.5563834 4285169028
4.7563329 0.29228893 -1.5557477 4279444524
4.74857 0.26257643 -1.5525697 4290040279
4.7406211 0.23297018 -1.5493917 4290502370
4.7476454 0.20412178 -1.5512985 4287143066
1.8494058 0.068385646 -0.57882696 4291617493
1.8279933 0.056369092 -0.57151753 4287659107
1.8576888 0.045871086 -0.58136934 4290684808
1.7773554 0.032993477 -0.55435628 4290553219
1.7595106 0.021867314 -0.54831803 4282199066
1.7207382 0.010834763 -0.53528816 4283646009
1.7084461 0.00027711532 -0.53115678 4284435517
1.6970381 -0.010135161 -0.52734315 4284501560
1.6836706 -0.020384034 -0.52289391 4285093697
1.6768779 -0.030591859 -0.52066934 4284567103
1.6719193 -0.040763758 -0.51908034 4284239679
1.6650038 -0.050817668 -0.51685572 4284105280
4.7592368 -0.1752158 -1.5547943 4287280045
4.7334428 -0.20335449 -1.5465314 4287808445
4.7207413 -0.2318355 -1.5427179 4287741627
4.7258573 -0.26116383 -1.5449425 4287478453
4.7459321 -0.29149491 -1.5522519 4287741109
4.7374325 -0.32016185 -1.5500273 4288004279
4.7315965 -0.34894493 -1.5487561 4288398264
1.7852628 -0.14243528 -0.55880547 4289382341
4.7241244 -0.40673837 -1.5478027 4288070590
4.7357016 -0.43702546 -1.5525697 4288332994
4.7178335 -0.46458703 -1.5474849 4289845459
4.7092361 -0.49293366 -1.5455781 4287936684
4.7042384 -0.52161056 -1.5449425 4288790966
4.6971822 -0.55002397 -1.5436713 4288726727
4.6984239 -0.57941562 -1.5452603 4288860615
4.7775254 -0.61896074 -1.5732268 4286224777
4.7933679 -0.65094441 -1.5799006 4288519820
4.8568716 -0.68995047 -1.6027822 4289840305
4.8159695 -0.71431047 -1.5903881 4293589490
4.8180547 -0.74486184 -1.5926126 4280625702
4.7806296 -0.76913691 -1.5814897 4285697666
4.8384767 -0.80893624 -1.6027822 4284910719
4.8502374 -0.84152824 -1.6085027 4285632892
4.8431163 -0.87093717 -1.6078671 4287078026
4.806921 -0.89490837 -1.5973797 4286414698
4.5462332 -0.87525046 -1.5103022 4290292632
4.5463567 -0.90423936 -1.5122089 4289503380
4.5453668 -0.93307197 -1.513798 4287530366
4.532135 -0.95937276 -1.5112556 4287663233
4.5196786 -0.98574847 -1.5090309 4288123786
4.5033693 -1.0111762 -1.5055351 4287070579
4.5257177 -1.0454072 -1.5153869 4285491034
4.5745673 -1.0863051 -1.5344551 4287597952
4.8377051 -1.1802189 -1.6275707 4289439644
4.7751884 -1.1960537 -1.6085027 4280754970
4.6649108 -1.19889 -1.572909 4291417034
4.7188945 -1.2436855 -1.5942017 4285766030
4.6882911 -1.2664334 -1.5862566 4283862661
4.6137252 -1.2767112 -1.5630572 4284649101
4.5638423 -1.2931033 -1.5484383 4279251769
4.5011849 -1.3052338 -1.5293702 4280041031
