# .PCD v0.7 - Point Cloud Data file format
VERSION 0.7
FIELDS x y z rgb
SIZE 4 4 4 4
TYPE F F F U
COUNT 1 1 1 1
WIDTH 1111
HEIGHT 1
VIEWPOINT 0 0 0 1 0 0 0
POINTS 1111
DATA ascii
1.894756 0.19823027 -0.52597797 4283777857
1.898798 0.18688393 -0.52683353 4284171071
1.8941828 0.17469792 -0.5251224 4285419325
1.8980838 0.16332041 -0.52597797 4284499248
1.9009609 0.15182471 -0.52654833 4284696888
1.9009008 0.14008676 -0.52626318 4283973935
1.9007684 0.12835523 -0.52597797 4283840807
4.7427292 0.292799 -1.372982 4279174403
4.7511353 0.26406661 -1.3749783 4279702806
1.893236 0.09287104 -0.52312613 4284038960
1.8870672 0.08096087 -0.52112979 4283447342
1.8578366 0.068270683 -0.51228905 4282065950
1.8342704 0.056121845 -0.50515938 4287328612
1.8326639 0.044817824 -0.50458896 4283248670
1.8175716 0.033281326 -0.50002599 4284563238
1.76503 0.021452636 -0.48434076 4284171314
1.7200812 0.010321231 -0.47093698 4281409558
1.7296969 -0.00022795552 -0.47378889 4280752408
1.7114522 -0.010739364 -0.46837035 4280687385
1.7286054 -0.021442739 -0.47350368 4281016350
1.7178997 -0.031860545 -0.47036663 4281082143
1.7349194 -0.042814769 -0.47550002 4280820258
1.7135472 -0.052823905 -0.46922591 4280622363
1.8290898 -0.067542553 -0.50373346 4280490006
1.8573692 -0.079983346 -0.51228905 4282134831
1.8951372 -0.093238764 -0.52369648 4282529069
1.8993146 -0.10512725 -0.5251224 4282922286
1.8986338 -0.11677925 -0.5251224 4283710262
1.8988378 -0.12849095 -0.52540761 4284632647
1.8999255 -0.14027956 -0.52597797 4284304452
1.9009399 -0.15208636 -0.52654833 4282988079
1.899971 -0.16374744 -0.52654833 4282659627
1.9113386 -0.17654081 -0.53025579 4281870881
1.914035 -0.18863894 -0.53139651 4280094727
1.9233279 -0.20147173 -0.53453356 4279964432
1.9163394 -0.21263851 -0.53282243 4279899410
1.9149984 -0.22439294 -0.53282243 4280096535
1.9373689 -0.23905912 -0.5399521 4279571222
5.2078071 -0.67308068 -1.5215642 4280097564
5.2653174 -0.71337324 -1.5401013 4279967518
5.2532492 -0.74459285 -1.5378199 4279771430
5.1215258 -0.75803608 -1.4996048 4279309852
4.7653308 -0.73530501 -1.3938006 4286414464
4.8884912 -0.78501624 -1.4323008 4279109124
4.8712921 -0.81294852 -1.4285934 4285885028
4.8492122 -0.83988267 -1.42346 4282003502
4.8392506 -0.86877537 -1.4220341 4281741362
4.8602147 -0.90335 -1.4300194 4280229663
5.2536845 -1.009773 -1.5509384 4280362280
5.2022624 -1.0330392 -1.5372494 4280230951
5.1150727 -1.0484076 -1.5127234 4280099365
5.1085429 -1.0797733 -1.5127234 4287930013
5.0156579 -1.0923533 -1.4864863 4282468683
4.9938955 -1.1197565 -1.4819232 4278979855
4.9757233 -1.1477947 -1.4785011 4283912783
4.8697252 -1.1548824 -1.4482713 4284437066
4.9519506 -1.2065012 -1.4756491 4279504133
4.9491038 -1.2380251 -1.4770751 4279506199
4.888494 -1.2547981 -1.4608195 4280891192
4.8621631 -1.2798942 -1.4551158 4278589727
4.8079467 -1.2972308 -1.4408565 4285103737
4.7573972 -1.3149713 -1.4277378 4285501316
4.7086573 -1.3326623 -1.4151896 4287211691
4.6617231 -1.3503381 -1.4032118 4278982678
4.3335242 -1.2842273 -1.3039669 4281543464
4.3053808 -1.304683 -1.2976928 4281935392
4.3055353 -1.3336259 -1.3002595 4286208336
4.3164625 -1.3660873 -1.3062483 4286536273
4.309823 -1.3931361 -1.3068187 4283379237
4.2911811 -1.4162527 -1.3036817 4283379492
4.283319 -1.442862 -1.3039669 4283181600
4.2707591 -1.4678715 -1.3028262 4283050527
4.2661948 -1.495633 -1.304252 4282591004
4.3002629 -1.5372574 -1.3179411 4282263327
4.4114332 -1.6075583 -1.356156 4282263068
4.4014864 -1.634596 -1.356156 4283578912
4.3994431 -1.6646229 -1.3587227 4284237596
4.3989849 -1.6953751 -1.3618597 4284829472
4.4741607 -1.7559295 -1.3892376 4281539331
4.4659724 -1.7844156 -1.3900932 4284036894
4.4558277 -1.8121456 -1.3903784 4283909158
4.4933391 -1.8595989 -1.4060637 4283917907
4.0237017 1.6100364 -1.3037884 4292795348
4.0112824 1.5765849 -1.2963791 4281608988
2.6201694 1.0114532 -0.83047765 4284567876
2.6611583 1.0085527 -0.84203631 4282525719
4.0091858 1.491166 -1.2863023 4285620310
4.0092878 1.4632645 -1.2833385 4279501568
4.0775385 1.4598784 -1.3028994 4284371265
3.0924344 1.0859214 -0.97599775 4281738004
3.947943 1.3590717 -1.2545903 4282788382
3.9462531 1.3314643 -1.2513301 4283183138
3.636956 1.2023348 -1.1475989 4282986522
4.0122709 1.2991139 -1.2676307 4284103462
4.0529428 1.2848579 -1.2783002 4284564530
4.2139993 1.3075001 -1.3280911 4281014803
4.3087645 1.3079662 -1.3562468 4282988580
4.3093843 1.2793297 -1.3538758 4283446564
4.2015796 1.2193345 -1.3165326 4283377950
4.304544 1.2206203 -1.3473556 4287191876
4.3156347 1.1952044 -1.348541 4288770897
4.3191991 1.1677049 -1.3473556 4289891429
4.3336706 1.143129 -1.3497266 4291271293
4.3785272 1.1262681 -1.3618779 4281340937
4.6642089 1.1692624 -1.4510868 4279438866
4.7102647 1.1501333 -1.4635345 4283454808
4.7729855 1.1344568 -1.481317 4280822052
4.7100658 1.0890185 -1.4590889 4279439116
4.6383848 1.0425113 -1.4341934 4283846740
4.5523162 0.99387103 -1.4048523 4286478460
4.7610803 1.0088658 -1.4691657 4284637794
4.7971187 0.98578298 -1.4786496 4285164665
4.7899632 0.95371985 -1.4745004 4287204774
4.6559887 0.89739048 -1.4303405 4290495448
4.6548352 0.86758053 -1.4282659 4287732395
4.6628909 0.83951014 -1.429155 4283716441
4.6848917 0.81382424 -1.4344897 4287005053
4.7481999 0.79483461 -1.452865 4288714381
4.8048487 0.77403551 -1.4691657 4289633426
4.7585402 0.73665303 -1.4531614 4286014807
4.7053423 0.69888663 -1.4350826 4288253578
5.1785412 0.73668516 -1.5820845 4278651668
5.1895885 0.7057969 -1.5841591 4279640622
5.1881385 0.67320383 -1.5823809 4280167477
5.2111292 0.64369768 -1.5883083 4283523165
4.8753901 0.57190245 -1.4822061 4282661686
4.8645692 0.54039627 -1.4777606 4284959049
4.7139144 0.49441096 -1.4297478 4281079831
4.6988006 0.46369705 -1.4241166 4280491293
1.8960491 0.17560104 -0.54981065 4282925888
4.6755905 0.40353921 -1.4152254 4279505431
4.6741705 0.37453791 -1.41404 4279438866
4.6716185 0.34549889 -1.4125581 4279242257
4.6641212 0.31618267 -1.4095943 4279373325
4.6573944 0.28703016 -1.4069269 4279241737
4.6590676 0.25844756 -1.4069269 4279176464
4.626225 0.22816435 -1.3962574 4278387720
4.945282 0.21346478 -1.4949503 4289707967
4.9283643 0.18244718 -1.4893191 4291348932
1.8507448 0.057386398 -0.53351003 4280163862
1.8281474 0.045464333 -0.52639705 4281868821
1.8112036 0.033927865 -0.52106225 4283379490
1.7426178 0.021962536 -0.49972335 4284102954
1.7513152 0.011323299 -0.50239068 4281540634
1.7112387 0.0005728422 -0.48994294 4280687385
1.7131202 -0.0099386442 -0.49053571 4280687385
1.7139819 -0.02046158 -0.49083206 4280885021
1.70523 -0.030820711 -0.48816469 4281016350
1.7002348 -0.041166551 -0.4866828 4281147164
1.7018595 -0.051656604 -0.48727557 4280687130
4.9329572 -0.21108247 -1.4910973 4287600288
4.9535089 -0.24242203 -1.497914 4284376942
4.9395318 -0.27212766 -1.4940611 4284439655
4.9425349 -0.30272323 -1.495543 4281873987
4.9434433 -0.33323729 -1.4964322 4285035385
4.9841676 -0.36672044 -1.509769 4286615960
4.9532623 -0.39501587 -1.5008777 4280761926
5.0706415 -0.43571272 -1.538221 4279641127
5.077383 -0.46769416 -1.5411848 4284832340
5.1171899 -0.50304753 -1.5545216 4282858034
5.1387038 -0.53701937 -1.5622274 4281151017
5.1191745 -0.56675196 -1.557189 4279836963
5.1345725 -0.60037172 -1.5631164 4279046929
5.0938239 -0.62731004 -1.5515579 4278848519
5.0207357 -0.649602 -1.5299225 4283124806
5.0573506 -0.68591893 -1.5426667 4280820769
5.05021 -0.71653467 -1.5417775 4280163619
5.0428839 -0.74708849 -1.5408884 4279442729
4.9900675 -0.77057981 -1.5257733 4279178531
4.8051395 -0.77222466 -1.4691657 4280229925
4.9265409 -0.82278568 -1.5088799 4280492833
4.8668199 -0.84353453 -1.4916902 4280294429
4.8784723 -0.87642199 -1.4970249 4280030492
4.8683085 -0.90546566 -1.495543 4279637528
4.8570337 -0.93423718 -1.4937648 4279638555
5.0544825 -1.0044322 -1.5580782 4279968031
5.0014453 -1.0258287 -1.5432594 4292995043
5.0137448 -1.0604517 -1.5491868 4279440406
5.0118093 -1.0922127 -1.5506687 4280690992
5.0124683 -1.1246172 -1.5530398 4279111962
5.0119877 -1.1568562 -1.5551144 4280033315
4.9824924 -1.1822935 -1.5480014 4283255112
4.8016305 -1.1705301 -1.4925792 4281149477
4.9083147 -1.2285018 -1.5290334 4285031271
4.8683076 -1.250278 -1.5186603 4279836193
4.8291435 -1.2718531 -1.5085835 4285628287
4.7871332 -1.292248 -1.4976176 4285629566
4.7284865 -1.3075924 -1.481317 4286884257
4.6900496 -1.3279923 -1.4715366 4285832096
4.6130147 -1.3368019 -1.4493085 4289645261
4.5598583 -1.3517768 -1.4347862 4279968033
4.2663174 -1.2932614 -1.3423172 4281674791
4.2427931 -1.314608 -1.3372788 4283053097
4.2319155 -1.3397516 -1.3363897 4282919456
4.2127109 -1.3621659 -1.3328332 4282655767
4.1979251 -1.3858925 -1.3307586 4283247906
4.1875319 -1.4110143 -1.3301659 4283247651
4.1815047 -1.4376137 -1.3310549 4282853663
4.1780124 -1.4651407 -1.3328332 4283116320
4.1770377 -1.4936438 -1.3355006 4283050014
4.1704855 -1.5202271 -1.3363897 4284102952
4.3007402 -1.5976841 -1.3826241 4287392335
4.4051862 -1.6673266 -1.4205601 4283314451
4.4429932 -1.7128808 -1.4365644 4284631592
4.5079632 -1.7697829 -1.4617562 4282918413
4.4979057 -1.7977645 -1.4620527 4284561436
4.4912138 -1.8271292 -1.4635345 4284368929
4.4808006 -1.8550177 -1.4638309 4283978298
4.0131454 1.63481 -1.3550354 4293781214
3.9515316 1.5814886 -1.3301933 4281672469
2.5457771 1.0003467 -0.8400991 4281608988
2.55897 0.98745155 -0.84255266 4281871643
3.9862018 1.510849 -1.3323401 4282263832
3.9686377 1.4763981 -1.3231394 4281211922
2.7608778 1.0074688 -0.90573132 4281673247
2.7553596 0.98633462 -0.90174425 4283582008
3.9556313 1.3892102 -1.3096449 4282000155
3.9415841 1.3571597 -1.3019776 4282657824
3.3213143 1.1206452 -1.0882132 4282659106
4.0112543 1.3263327 -1.3200724 4282921247
4.1469817 1.3430797 -1.3633161 4281934867
4.2086701 1.3345978 -1.381411 4281998875
4.2185979 1.3093137 -1.3820243 4283248172
4.2192669 1.2811898 -1.3795707 4283117347
4.1869049 1.2433439 -1.3660764 4282263329
4.1103668 1.1931953 -1.3378606 4283709233
4.2082567 1.1936904 -1.3682232 4284955949
4.2365975 1.1736968 -1.375277 4288113235
4.2391257 1.1464359 -1.3737437 4289758062
4.2598839 1.1240498 -1.3783439 4281013514
4.5634937 1.1743443 -1.4770988 4279768085
4.5853844 1.1500295 -1.482006 4279047194
3.1093557 0.75919932 -0.99007165 4285165426
4.7287822 1.1245331 -1.5249429 4279244056
4.7624841 1.1017243 -1.533837 4278784529
4.5890121 1.0319259 -1.4743387 4279571481
4.5868888 1.0019187 -1.4715785 4290096804
4.4793611 0.94964331 -1.434162 4287003760
4.4534068 0.91561526 -1.4237344 4284043339
4.4514732 0.88678294 -1.4212809 4287400061
4.4530926 0.85873061 -1.4200541 4287927167
4.4535999 0.83051711 -1.4185207 4290165160
4.438941 0.79962605 -1.4120802 4293849053
4.654748 0.80910194 -1.4810859 4293718241
4.6558704 0.77989578 -1.4798591 4282535749
4.6793613 0.7543475 -1.4859929 4284311390
4.7516212 0.73612952 -1.5080748 4283979602
4.7664046 0.70850211 -1.5114484 4285819999
4.7489896 0.67615157 -1.5043945 4294045415
5.0972729 0.69394213 -1.6163372 4280955201
5.0636811 0.65773994 -1.6040695 4279968047
5.0628986 0.62607229 -1.602536 4281677370
4.9239063 0.57819963 -1.5562254 4284568400
4.8545232 0.53985834 -1.5326102 4281540125
4.8624773 0.5105595 -1.5341437 4279634442
1.8298241 0.18005261 -0.55119503 4286542960
4.6323915 0.42893976 -1.4577773 4279571474
4.6226087 0.39943954 -1.4537903 4280228636
4.7606421 0.38198772 -1.4976473 4279044876
4.8378825 0.3583422 -1.521876 4278979083
4.8637309 0.33026856 -1.5295433 4279110669
4.7070179 0.29058546 -1.4783256 4279175948
4.6725998 0.25968224 -1.4666713 4278913551
4.6769571 0.23114848 -1.4675914 4278848020
4.8637147 0.21051745 -1.5273964 4280032811
4.8439894 0.17988814 -1.5206492 4285623147
1.7788179 0.054389771 -0.53218019 4280426529
1.8152755 0.044381469 -0.54383445 4282527780
1.7945776 0.032845464 -0.5370872 4284169772
1.7519175 0.021284558 -0.5232861 4284695087
1.7272687 0.010369253 -0.51531208 4281606680
1.6920826 -0.00024847093 -0.50396442 4280753435
1.7006155 -0.010678781 -0.50672472 4280753435
1.7014698 -0.021124521 -0.50703144 4281148194
1.6946465 -0.031445142 -0.5048846 4281345573
1.6915671 -0.041774187 -0.50396442 4281016608
1.6903275 -0.052123982 -0.50365782 4280819229
4.8609891 -0.20743139 -1.5264764 4286351241
4.8729343 -0.23790056 -1.5307701 4279838763
4.8685317 -0.26763979 -1.5298499 4285694858
4.869648 -0.297681 -1.5307701 4285037442
4.8667808 -0.32749137 -1.5304633 4284841351
4.7991796 -0.35255155 -1.5093015 4284381321
4.8301349 -0.3846285 -1.5200357 4282475891
4.8494959 -0.41612476 -1.5270897 4283265407
4.8241038 -0.44378576 -1.5197291 4283722870
4.8468661 -0.47588256 -1.5280098 4283392103
4.852375 -0.50650072 -1.5307701 4282468179
4.8434997 -0.53563839 -1.5289298 4283985015
4.8457942 -0.56600863 -1.5307701 4283266171
4.8337278 -0.59468722 -1.5280098 4284184193
4.875299 -0.63018125 -1.542731 4288125854
4.9354792 -0.66875911 -1.5635861 4279898639
4.9944248 -0.70796561 -1.5841345 4279968033
4.9965782 -0.73957151 -1.5862813 4279835942
4.9872427 -0.76949143 -1.5847478 4279177753
4.8029246 -0.77129626 -1.5261697 4286084991
4.8825994 -0.81483281 -1.553772 4280491554
4.8728185 -0.84396541 -1.5522385 4280098085
4.8609896 -0.87267286 -1.5500916 4279835945
4.8555441 -0.90248287 -1.5500916 4279508260
4.8648705 -0.93513012 -1.5549988 4279901729
4.8179617 -0.95681489 -1.5415043 4280689187
4.847434 -0.99361372 -1.5531585 4283452232
4.9325109 -1.0426073 -1.5832144 4283714633
4.9520626 -1.0785183 -1.5918018 4283057471
4.9852901 -1.1178288 -1.6049895 4279307785
4.9811196 -1.1490382 -1.6059096 4278781956
4.9573045 -1.1756306 -1.6003891 4278914306
4.920404 -1.1988227 -1.590575 4282138420
4.7116518 -1.1786841 -1.5237161 4279965462
4.816812 -1.2364163 -1.5611326 4280164381
4.7833605 -1.2591702 -1.5525452 4279309074
4.737865 -1.2783399 -1.5399708 4287668898
4.6969032 -1.2982658 -1.5289298 4287214262
4.6338949 -1.3115221 -1.5105283 4286293412
4.5681601 -1.3232607 -1.4912068 4286555033
4.5061083 -1.3353235 -1.4731119 4280892991
4.43224 -1.3430897 -1.45103 4279903270
4.1302228 -1.2793734 -1.3519684 4281412397
4.1340933 -1.3084223 -1.3559555 4282131228
4.1287036 -1.3346416 -1.3568755 4282786326
4.1177249 -1.3590556 -1.3559555 4282523668
4.1147213 -1.3861175 -1.3577956 4283707944
4.1043382 -1.4107206 -1.3571823 4283247651
4.1027913 -1.438395 -1.3596357 4283050527
4.1028519 -1.4667439 -1.3627027 4282983452
4.1009297 -1.4944963 -1.3651562 4282785811
4.0836515 -1.5166506 -1.362396 4291142025
4.3004045 -1.6271781 -1.4402958 4287458905
4.4209075 -1.7038178 -1.4853796 4285090358
4.4466996 -1.7451601 -1.4979539 4284631852
4.4845252 -1.7918233 -1.514822 4283906073
4.479619 -1.8218145 -1.5169688 4284231701
4.4771514 -1.8529043 -1.5200357 4284041520
2.6672199 -1.1235796 -0.89131677 4284243790
2.6489 -1.1350553 -0.8873297 4286151021
2.6427584 -1.1516672 -0.88763642 4281344284
4.0272303 1.6393687 -1.4159153 4281276422
2.4410613 0.97643399 -0.83974171 4281672469
4.0346889 1.5849725 -1.411466 4282264851
3.9947982 1.5410802 -1.3936691 4282198289
3.9234872 1.4859868 -1.3647492 4282987551
3.9254212 1.4592425 -1.3622068 4283053094
3.9209392 1.4302564 -1.3574398 4286341980
2.7949524 1.0002567 -0.95351452 4283250992
2.8028266 0.98371619 -0.95415014 4282789161
3.2248344 1.1095912 -1.1016098 4282789673
4.0842395 1.3772157 -1.4032031 4282133030
4.1133208 1.3589686 -1.4105126 4279698178
4.118875 1.3328288 -1.4095592 4281211419
4.1333032 1.3095348 -1.4117838 4280817424
4.1340151 1.2819027 -1.4092414 4281213979
4.1445251 1.257338 -1.4101948 4281411104
4.1430721 1.2291882 -1.4070168 4286740086
4.079505 1.1831499 -1.3822283 4286606954
4.137774 1.1725684 -1.4000251 4285683526
4.1430635 1.1466516 -1.3993895 4286012491
3.0277872 0.81812447 -1.0097653 4287655774
4.4272966 1.1669934 -1.4931409 4279901986
4.5390635 1.1667058 -1.5293702 4279640359
4.5985627 1.1519612 -1.5474849 4279574566
4.652523 1.1351815 -1.5636928 4279441952
4.7055268 1.1175638 -1.5795828 4279440925
4.7474012 1.0967778 -1.5916593 4279506971
4.789197 1.0755194 -1.6037357 4278387968
4.6595263 1.0164192 -1.5570189 4283847498
4.4829364 0.9491359 -1.4944121 4284702029
4.4766016 0.91913319 -1.4902807 4290161046
4.4682074 0.88887423 -1.4855137 4290487947
4.4651976 0.85982829 -1.4826535 4293118889
4.4536104 0.82929128 -1.476933 4285026096
4.4380846 0.79825801 -1.4699414 4286738506
4.4232812 0.76760858 -1.4632676 4287989349
4.4241672 0.73982817 -1.4619964 4287198556
4.4276867 0.71251756 -1.4616786 4284433968
4.4319758 0.68533629 -1.4616786 4288579950
4.4614205 0.66188395 -1.4702592 4291344018
4.6231065 0.656892 -1.5236498 4279834379
4.9540095 0.6728974 -1.6342446 4279905083
4.9561648 0.64224404 -1.6336091 4280034864
4.9656587 0.61251748 -1.6355158 4283781196
4.9599061 0.580935 -1.6323378 4279240196
4.963377 0.55049062 -1.6323378 4279503628
1.8264375 0.19148119 -0.5740599 4284170814
4.8197265 0.47477394 -1.5818074 4278979083
4.8112192 0.44414675 -1.5779939 4279242766
4.8072414 0.41404828 -1.5757692 4279176977
4.7454214 0.37941051 -1.5541587 4278979596
4.7590075 0.35112229 -1.5579723 4279242768
4.7762084 0.32293713 -1.5630572 4279374354
4.7799926 0.29374093 -1.5636928 4279440155
4.791172 0.26492864 -1.5668708 4279638566
4.783237 0.23506096 -1.5636928 4279903028
4.7770109 0.20538194 -1.5611503 4280101953
4.7658634 0.17561401 -1.5570189 4282073936
1.8147253 0.055962779 -0.56706828 4286151544
1.8387313 0.045406949 -0.57501334 4283249446
1.8171713 0.033723876 -0.5677039 4284365094
1.7756281 0.02206406 -0.55372065 4285419325
1.7567674 0.01105348 -0.54736465 4281475094
1.7198241 0.00027637064 -0.5349704 4280555795
1.731171 -0.010346835 -0.53878397 4280753174
1.7159054 -0.020781746 -0.53369915 4281082139
1.7129017 -0.03125741 -0.53274578 4281016861
1.696564 -0.041370362 -0.52734315 4281016607
1.6981736 -0.051837798 -0.52797878 4280753174
4.7419682 -0.20372146 -1.5493917 4287998375
4.7472577 -0.2331399 -1.5516163 4286749851
4.7447915 -0.26221174 -1.5512985 4287473574
4.7459321 -0.29149491 -1.5522519 4287078816
4.7582445 -0.32157004 -1.5570189 4286551959
4.7571273 -0.35082987 -1.5573367 4286617754
1.8476418 -0.14742576 -0.57978034 4283982184
1.8467026 -0.15875991 -0.57978034 4279839535
4.7772436 -0.44086254 -1.566553 4285829780
4.7423668 -0.46700495 -1.5557477 4285106057
4.7563858 -0.49787292 -1.5614681 4284181354
4.7570114 -0.52746648 -1.5627394 4283390807
4.7273173 -0.55355519 -1.5538409 4285038469
4.7163033 -0.58162206 -1.5512985 4283724931
4.696661 -0.60847753 -1.5458959 4286089876
4.8102794 -0.65324235 -1.585621 4281545264
4.8503003 -0.68901646 -1.6005577 4279439888
4.8731804 -0.72280079 -1.6097739 4287337615
4.8086843 -0.74341249 -1.5894346 4285692792
4.7984157 -0.7719999 -1.5875279 4284243547
4.8104219 -0.80424351 -1.5932482 4279701777
4.8661189 -0.84428495 -1.6139053 4279966239
4.8692451 -0.87563807 -1.6167655 4279769888
4.8628483 -0.90532506 -1.6164478 4279308559
4.77527 -0.91936511 -1.5884813 4282003245
4.5677452 -0.90849519 -1.5195184 4282661175
4.5657997 -0.93726826 -1.5207896 4282069296
4.563673 -0.96605152 -1.5220608 4284833115
4.5585856 -0.9942376 -1.5223786 4284174671
4.5311222 -1.0174104 -1.5150691 4283976517
4.5719085 -1.0560809 -1.5312771 4283186488
4.5570402 -1.0821414 -1.5284169 4284108871
4.6783509 -1.1413293 -1.5725912 4283782736
4.8763585 -1.2214025 -1.6434609 4283191377
4.624506 -1.1885023 -1.5589257 4279703319
4.7353973 -1.2480363 -1.5999221 4283386951
4.7011056 -1.269896 -1.5907059 4278718734
4.6667252 -1.2913821 -1.5814897 4289119688
4.5994191 -1.3031867 -1.5608325 4288658101
4.5530901 -1.3202897 -1.5474849 4283851876
4.4985452 -1.3344463 -1.5312771 4279838001
4.3351221 -1.3149482 -1.476933 4279970867
4.2246385 -1.3097864 -1.4410216 4279574304
4.0664806 -1.2881399 -1.3882666 4292658865
4.0395565 -1.3069363 -1.3815926 4290018395
4.0125551 -1.3254508 -1.3749188 4291136862
4.016026 -1.3539854 -1.3790503 4291465061
4.0103331 -1.3795273 -1.3800037 4291926905
4.003582 -1.4047364 -1.3806393 4289954920
4.0082779 -1.4340676 -1.3854063 4288245341
3.986042 -1.4537607 -1.3806393 4282653964
3.9726036 -1.4765391 -1.3790503 4282719759
3.9625821 -1.5005509 -1.3787324 4283181601
3.9630308 -1.5285908 -1.3822283 4283444780
4.4310045 -1.7404524 -1.5541587 4285813831
4.4871483 -1.7943693 -1.5783116 4283644190
4.4936171 -1.8290185 -1.5846677 4282987291
4.4744267 -1.8532902 -1.5818074 4285098586
2.679709 -1.1484822 -0.93571764 4283325265
2.6847794 -1.1702085 -0.94016689 4280096789
2.6324756 -1.1666769 -0.9236412 4281544235
2.420804 0.98564589 -0.86600024 4281934352
4.0842118 1.6346322 -1.4860004 4280816902
3.9605453 1.5569704 -1.4361379 4281015821
3.9656181 1.5309373 -1.4344977 4281936153
3.896328 1.4767567 -1.4053019 4283052570
3.9097424 1.4544696 -1.4069421 4283117850
2.7588978 1.0067453 -0.97819078 4286605919
3.8712726 1.3863015 -1.3862755 4281738777
3.1640666 1.1109657 -1.1228575 4281739291
3.9576559 1.3626987 -1.4118629 4281673759
2.7961981 0.94327015 -0.98311138 4282330409
2.8046238 0.92698568 -0.98409545 4280554000
4.0269995 1.3041855 -1.428265 4278910976
4.0394282 1.2808807 -1.4299052 4279238912
2.8897738 0.8965041 -1.0090268 4281872421
2.901547 0.88067889 -1.011323 4286543471
2.9195733 0.86662704 -1.0159156 4284174159
4.0297318 1.1697639 -1.4154713 4279633925
4.0450125 1.147338 -1.4184237 4281604884
4.0792851 1.1300703 -1.428265 4281737753
4.2712455 1.1551315 -1.4948575 4281084721
4.2782526 1.128902 -1.4948575 4280036660
4.4900141 1.1554158 -1.568339 4279313451
4.5648198 1.1448665 -1.5926142 4279180324
4.6203928 1.1287293 -1.6100004 4279441438
4.6814513 1.1132654 -1.629355 4279506202
4.7148824 1.0907004 -1.6388681 4279506202
4.7426829 1.0665219 -1.6464131 4278717453
4.6134787 1.0077336 -1.5981909 4282861634
4.4680271 0.94723761 -1.5443919 4284439635
4.4552498 0.91599476 -1.5378311 4284701520
4.4589334 0.88827103 -1.5371749 4290357909
4.4615173 0.86035752 -1.5361909 4293382321
4.4583549 0.83140522 -1.5332385 4286803786
4.4317641 0.79833126 -1.5220851 4286540878
4.4095898 0.76642513 -1.5125718 4292200095
4.4058251 0.73794734 -1.5096195 4281343232
4.4177303 0.71210438 -1.5122437 4294961599
4.415482 0.68397045 -1.5099474 4292921757
4.5410628 0.6749503 -1.552593 4286806358
4.8069749 0.6844219 -1.6444448 4280100135
4.8363557 0.6583603 -1.653302 4279641653
4.8477983 0.62964779 -1.6559263 4279903782
4.8496957 0.59965813 -1.6552702 4287598730
4.8589125 0.57055199 -1.6572385 4281153075
4.8125634 0.53518188 -1.6398523 4285429879
4.8617907 0.5104872 -1.6559263 4279376412
4.8121881 0.47543228 -1.637556 4279705124
4.6823874 0.43358195 -1.591302 4279309850
4.6435499 0.40125442 -1.5768682 4279901476
4.6760564 0.37517974 -1.5873655 4279967528
4.6810966 0.34669095 -1.5883496 4279573802
4.6689982 0.31699836 -1.583429 4279508520
4.6595416 0.28764266 -1.5794924 4279573548
4.6640482 0.2592048 -1.5804766 4279706419
4.6721554 0.23090996 -1.5827729 4279772470
4.6376209 0.20067687 -1.5703073 4279905083
4.6793571 0.17373447 -1.5844131 4281482050
1.8269551 0.055893347 -0.59306896 4284963410
1.8083763 0.04420834 -0.5865081 4282855454
1.7802788 0.032574426 -0.57666683 4284498737
1.7436062 0.021178026 -0.56387317 4284498221
1.734257 0.010415945 -0.56059277 4281277974
1.7191736 -0.0002336952 -0.5553441 4280687381
1.6983576 -0.010666157 -0.54812717 4280818967
1.6897588 -0.020987187 -0.54517478 4281082139
1.6924317 -0.031405576 -0.54615891 4281082654
1.6865408 -0.04165354 -0.54419065 4280819741
1.6843649 -0.051944252 -0.54353458 4280818967
4.6330185 -0.19775827 -1.5686671 4287210142
4.6487021 -0.22700731 -1.5745718 4287473825
4.6491079 -0.25563017 -1.5752279 4287408030
4.6493382 -0.28426659 -1.575884 4287539618
4.6437359 -0.31253621 -1.5745718 4287605411
4.6332517 -0.34040299 -1.5716194 4287473315
4.6348424 -0.36912468 -1.5729316 4286881437
4.5929589 -0.39417407 -1.5591538 4286619294
1.7927767 -0.16566281 -0.58355576 4279971378
4.6150403 -0.45317742 -1.5686671 4286423204
4.6309648 -0.48344317 -1.5752279 4286290589
4.6128879 -0.51019132 -1.5699792 4286354063
4.6143618 -0.53903282 -1.5716194 4282734425
4.6203442 -0.56848705 -1.5748999 4286024077
4.6130209 -0.59634274 -1.5735877 4286682266
4.6654434 -0.63223386 -1.5932703 4278455311
4.7596874 -0.67474681 -1.6277148 4279901209
4.774148 -0.7067011 -1.6342756 4279177486
4.7603855 -0.73454309 -1.6309952 4285559660
4.7492595 -0.7626915 -1.6286988 4282729535
4.767786 -0.79570001 -1.6368998 4282728255
4.7665372 -0.82558364 -1.6382121 4280690473
4.7743993 -0.85714883 -1.6428046 4278915091
4.7653351 -0.88573825 -1.6414925 4278649344
4.5547838 -0.87560099 -1.5689951 4282922799
4.5159674 -0.89691573 -1.5571855 4281213209
4.502975 -0.92309254 -1.5545613 4281215782
4.4593306 -0.94270384 -1.5411115 4282070836
4.4663854 -0.97285938 -1.5457041 4280360990
4.4769249 -1.0039628 -1.5516089 4281018148
4.4605546 -1.0290805 -1.5480003 4281872946
4.4651871 -1.0590439 -1.5519369 4281412397
4.7468147 -1.1565715 -1.6549423 4286019445
4.7487936 -1.187966 -1.6582227 4284046421
4.732264 -1.2147352 -1.6549423 4286085489
4.4899268 -1.182001 -1.5706353 4283187769
4.6577144 -1.2567346 -1.6336194 4287071876
4.6144023 -1.2754834 -1.6208258 4278192390
4.5601296 -1.2906638 -1.6040957 4278916634
4.5049381 -1.3049639 -1.5870374 4279574312
4.3419547 -1.2867233 -1.5309422 4280101177
4.2236738 -1.279946 -1.490921 4280034606
4.2238622 -1.3083513 -1.4938734 4279969063
4.2130523 -1.3333894 -1.4928893 4278191621
3.9701674 -1.2834405 -1.4072702 4289830544
3.951452 -1.3042268 -1.4033337 4291465837
3.9451654 -1.3290505 -1.4039898 4292187242
3.9288955 -1.3504713 -1.4010375 4291596908
3.9223182 -1.3751777 -1.4016935 4294628292
3.8826697 -1.388097 -1.3902121 4288575605
3.9095855 -1.424823 -1.4033337 4290283887
3.8981125 -1.4477991 -1.4023496 4291399017
3.8926899 -1.4730265 -1.4036617 4291070564
3.8809338 -1.4958653 -1.4026777 4291072107
3.8540933 -1.5127522 -1.3961167 4292455573
4.4974623 -1.7969886 -1.6401803 4290480235
4.4811006 -1.8224167 -1.6382121 4284565296
4.4672151 -1.8487947 -1.6372279 4284046149
2.6812263 -1.1488916 -0.97130191 4285628274
2.6749923 -1.1656985 -0.97162986 4284967010
2.668653 -1.1824723 -0.97195792 4280623645
2.3599725 0.99478132 -0.88017178 4294305756
2.3669012 0.98064208 -0.88051051 4283053094
3.927588 1.5988176 -1.4848189 4283184670
3.9565444 1.582373 -1.4922712 4282329621
3.9653034 1.5577224 -1.4919325 4280883982
3.9703975 1.5316696 -1.4902388 4281146389
3.9339652 1.4899541 -1.4726244 4281410588
3.9104013 1.4536605 -1.4600911 4282200104
2.7550976 1.005111 -1.0139732 4283120176
3.0455875 1.0899168 -1.1227081 4282264867
3.9480376 1.3854856 -1.4644947 4280949009
3.9208755 1.3489941 -1.4509451 4280751630
3.9317539 1.3258123 -1.4519614 4280752147
3.9389212 1.3013675 -1.4516226 4280752660
3.9432516 1.2760158 -1.4502677 4281014292
3.9501097 1.2515124 -1.449929 4281211669
3.9604104 1.2280872 -1.4509451 4281343255
3.9453619 1.1969367 -1.4424767 4281409050
3.958946 1.1745788 -1.4448479 4281605146
3.9769228 1.1534089 -1.4489127 4281735702
4.005651 1.1351401 -1.4570425 4281474583
4.2954674 1.1888168 -1.5627286 4280029974
4.2972307 1.1609659 -1.5606962 4279310115
4.2951751 1.1321794 -1.5573089 4280231993
4.3020411 1.1058034 -1.5573089 4280035382
4.4848957 1.1234969 -1.6226853 4279310883
4.6032238 1.1231571 -1.6640114 4279441438
4.6246753 1.0983685 -1.6694311 4279244056
4.6900001 1.0835212 -1.6911104 4278850068
4.7039042 1.0563723 -1.6938202 4278652173
4.6523829 1.0148613 -1.6724797 4281282864
4.4615364 0.94460708 -1.5999899 4283256905
4.4561892 0.91494399 -1.595925 4283914833
4.4543362 0.88611609 -1.5932151 4285690205
4.4532223 0.85752332 -1.5908439 4284768065
4.4473 0.82811677 -1.5867791 4285819213
4.4393334 0.79848242 -1.5820367 4285226307
4.4385867 0.77026337 -1.5800043 4293976775
4.4404449 0.74254882 -1.5789881 4293713083
4.4477048 0.7157371 -1.5800043 4293580202
4.5552249 0.70438403 -1.6176043 4294371270
4.5892444 0.68083626 -1.6284438 4279899667
4.7339973 0.67263889 -1.6795932 4280167219
4.7361703 0.64332587 -1.6789157 4280888884
4.7344303 0.61352807 -1.6768833 4284965730
4.7353044 0.58412129 -1.6758672 4283851362
4.7369304 0.55483627 -1.6751896 4288591279
4.7308936 0.52472413 -1.6718023 4292209118
4.7031436 0.49245518 -1.6606239 4283589469
4.6854768 0.4615604 -1.6531717 4288588973
4.5636125 0.42130911 -1.6081196 4289377721
4.5529885 0.39217007 -1.6033772 4293259508
4.5496812 0.36377662 -1.6013448 4278588185
4.5593343 0.33640668 -1.6040547 4280365376
4.5528641 0.30785424 -1.601006 4279510325
4.558424 0.28014314 -1.602361 4280168259
4.5581784 0.25206414 -1.6016835 4279841097
4.5577593 0.22399874 -1.601006 4279907397
4.5637484 0.19623032 -1.6026998 4280432193
4.5432405 0.16742888 -1.5949088 4279771420
1.819728 0.056115981 -0.61358505 4281083432
1.8463749 0.045594092 -0.6230697 4282330660
1.8108723 0.033608329 -0.61019766 4282854166
1.7941099 0.022289667 -0.60410041 4284104500
1.7678689 0.011120873 -0.59461576 4281934364
1.7472044 0.00027457858 -0.58716351 4280950557
1.7208291 -0.010282699 -0.57767886 4280884764
1.7160294 -0.020783275 -0.57598513 4281082143
1.7102253 -0.031207964 -0.57395273 4280950815
1.7015362 -0.041492753 -0.57090408 4280819231
1.7031305 -0.051990248 -0.57158154 4280818716
4.5515356 -0.19552459 -1.5982962 4288459440
4.4948053 -0.22072113 -1.5783106 4288066730
4.5506725 -0.25146818 -1.5989736 4288000167
4.5358963 -0.27857727 -1.5942312 4287736997
4.5406728 -0.30684838 -1.5966024 4288131242
4.5462108 -0.33525786 -1.5993124 4287999140
4.5393791 -0.36277142 -1.5976187 4288065964
4.5305057 -0.3900522 -1.5952475 4287804079
4.5195951 -0.41706467 -1.5921988 4287804595
1.7968714 -0.17670432 -0.60816526 4284119168
4.5356593 -0.47475031 -1.5999899 4287343530
4.5251799 -0.50174153 -1.5972799 4287079586
4.5136056 -0.52851248 -1.5942312 4287670694
4.5102777 -0.55619746 -1.5942312 4283259740
4.5095792 -0.58422446 -1.5952475 4288849583
4.5161653 -0.61327726 -1.5989736 4280953135
4.5914965 -0.65223074 -1.6277664 4279505431
4.6581397 -0.69088823 -1.6535105 4280295456
4.6724095 -0.72233349 -1.6602852 4280558628
4.6827521 -0.75338173 -1.665705 4281412908
4.6761851 -0.78178984 -1.6650275 4280425753
4.6750083 -0.81111133 -1.6663824 4282202416
4.6699433 -0.8397814 -1.6663824 4283649859
4.6554532 -0.86669707 -1.6629951 4285619792
4.5678205 -0.87940836 -1.6328474 4282851866
4.5198898 -0.89897305 -1.6172655 4280621588
4.4930916 -0.92233628 -1.6094745 4279572246
4.5002337 -0.95261705 -1.6142168 4279900700
4.4897079 -0.97920918 -1.6125232 4280558626
4.4808612 -1.0061204 -1.6115069 4280689955
4.5048552 -1.0405861 -1.6226853 4280624162
4.4809923 -1.0640761 -1.6162493 4280427040
4.4871759 -1.0946739 -1.6209916 4280295967
4.5999341 -1.1521426 -1.6653663 4280427551
4.6264944 -1.1890136 -1.6778996 4280491804
4.5554261 -1.2005888 -1.6541879 4281281320
4.4453354 -1.2007836 -1.6159105 4280819741
4.3889179 -1.2144827 -1.5976187 4280490525
4.5325556 -1.284236 -1.6541879 4279571482
4.3673582 -1.2664154 -1.5952475 4280098338
4.2422442 -1.2583942 -1.5512116 4281545010
4.2416453 -1.2865859 -1.5539215 4280886566
4.2489491 -1.3173258 -1.55968 4279835936
4.2524457 -1.3470668 -1.5640836 4279245852
4.1796479 -1.352275 -1.5396945 4279441687
3.8925397 -1.2857944 -1.4340082 4292525487
3.8569388 -1.3003336 -1.4235075 4291664241
3.8417702 -1.3215257 -1.4207975 4292449636
3.8264868 -1.3425807 -1.4180876 4292779389
3.8270354 -1.3692046 -1.4214749 4291530882
3.8220975 -1.3939509 -1.4228299 4290610548
3.8134727 -1.4173768 -1.4228299 4282980359
3.8196619 -1.4464148 -1.4285885 4288572749
3.810715 -1.4698246 -1.4285885 4291596645
3.7937431 -1.4900826 -1.4255399 4292253550
3.7888966 -1.5150796 -1.4272335 4291728495
4.5341873 -1.8455355 -1.7205806 4290941039
4.4888778 -1.8592774 -1.7073698 4286144839
2.6936111 -1.1740593 -1.0160056 4283259464
2.6897972 -1.1920903 -1.0173607 4279702028
2.7030187 -1.2178507 -1.0254904 4280557852
2.3330846 1.0003438 -0.90101445 4291676087
2.3581784 0.99402869 -0.90867579 4282133784
3.9080477 1.6199961 -1.5295963 4283119131
3.9370115 1.6037716 -1.5372578 4282986513
3.9432969 1.5781902 -1.5358648 4282592787
3.9642463 1.5584264 -1.5403919 4281409548
3.8854189 1.4999508 -1.5052192 4282197273
3.8927965 1.4754171 -1.5045228 4281211411
2.9424686 1.0943233 -1.1242393 4284503888
2.7703912 1.0109447 -1.0535457 4281412128
3.8557594 1.3807411 -1.4794492 4280292106
3.8376279 1.3477308 -1.4690018 4280883986
3.844939 1.3238528 -1.4686536 4281014802
3.85743 1.3017356 -1.4703947 4281277204
3.8608952 1.2765697 -1.4686536 4281276949
3.8668721 1.2522775 -1.467957 4281408535
3.8771634 1.2293781 -1.4690018 4281474583
3.8837385 1.205287 -1.4686536 4281606167
3.882092 1.1787081 -1.4651711 4281540634
3.893744 1.1562012 -1.4669123 4281606165
3.9133675 1.13595 -1.4717877 4281279002
4.1619344 1.1805376 -1.5651174 4280361760
4.2341385 1.173015 -1.590191 4279311394
4.294641 1.1614655 -1.6107374 4279376163
4.2962489 1.1336557 -1.6086479 4279048485
4.2949543 1.1051686 -1.6055138 4279969848
4.2989268 1.0781096 -1.6044691 4279772210
4.5467625 1.1107227 -1.6967539 4279507745
4.5936165 1.0923555 -1.7120767 4279440406
4.6385884 1.0730317 -1.7267029 4279374102
4.6203933 1.0389907 -1.7173004 4278979855
4.5873036 1.0020094 -1.7023258 4280295967
4.4649897 0.94659281 -1.6535716 4282269755
4.4661222 0.91823316 -1.6518303 4282137911
4.4551253 0.88751143 -1.6455619 4283388228
4.4466815 0.85749257 -1.6403383 4283255351
4.4371157 0.82743871 -1.6347663 4283714617
4.4347286 0.79886615 -1.6319804 4284765504
4.4247713 0.76906788 -1.6264085 4282131993
4.4414248 0.74391967 -1.6309357 4287460448
4.5227156 0.7290554 -1.65984 4286539866
4.5465565 0.70430934 -1.6671531 4281872683
4.6305304 0.68827134 -1.6971022 4280426539
4.6365223 0.66011071 -1.6977986 4280098855
4.6442008 0.63215572 -1.6991916 4285425768
4.6572876 0.60485721 -1.702674 4282466122
4.6488175 0.57477093 -1.6981469 4288063157
4.6126657 0.51290333 -1.6821276 4287407781
4.6213193 0.48517951 -1.6842171 4288985784
4.5178657 0.446282 -1.6445172 4292536553
4.466382 0.41352594 -1.624319 4282140760
4.4520254 0.38465607 -1.6180506 4281220432
4.4571047 0.35755733 -1.6190953 4289839818
4.462954 0.33048019 -1.6204883 4289707967
4.4723797 0.30359969 -1.6232742 4286549651
4.468545 0.27580401 -1.6211848 4287011232
4.460794 0.24785781 -1.6177024 4278262303
4.4603577 0.22038922 -1.6170058 4278191890
4.4653726 0.19317988 -1.6183988 4279969322
4.5423503 0.16861336 -1.6466067 4280296735
1.8523886 0.056687765 -0.64644742 4279111962
1.8311481 0.044779789 -0.63843787 4282066978
1.8145182 0.03322345 -0.63216949 4283445535
1.7828188 0.021680651 -0.62032914 4284105782
1.7829183 0.010741073 -0.62032914 4281738525
1.7379552 -0.00022345135 -0.60361338 4280884760
1.7369838 -0.0108821 -0.60326505 4281082139
1.7246988 -0.021396928 -0.59873796 4281016350
1.7217233 -0.031928848 -0.5976932 4281213729
1.7121236 -0.042267606 -0.59421074 4281016608
1.711832 -0.052772202 -0.59421074 4280753436
4.4467497 -0.18985462 -1.6114339 4289117886
4.4492464 -0.21731773 -1.6128269 4287672485
4.4450216 -0.24446 -1.6117822 4288198316
4.4462447 -0.27190048 -1.6128269 4288263341
4.4388809 -0.29880071 -1.6107374 4288329134
4.4425731 -0.32644224 -1.6128269 4288262060
4.4358139 -0.35332429 -1.6110857 4288131244
4.4372988 -0.38085493 -1.6124786 4287276193
4.4404793 -0.40858844 -1.6145681 4287605158
4.4462848 -0.43664935 -1.6177024 4287342241
1.8179922 -0.19050214 -0.63704491 4285436050
4.4284792 -0.48984262 -1.6131752 4287013276
4.4365635 -0.5183084 -1.617354 4286881177
4.4202738 -0.54392153 -1.6124786 4287078040
4.4205718 -0.57151335 -1.6138717 4285824887
4.4086218 -0.59749585 -1.6107374 4282927685
4.5051131 -0.63872093 -1.6483479 4278454016
4.5187283 -0.6689555 -1.6549646 4281414699
4.5719805 -0.70551836 -1.6765558 4280625700
4.5703421 -0.73400354 -1.6776005 4282271554
4.5648274 -0.76187867 -1.6772522 4282863944
4.5499063 -0.78811622 -1.6734215 4282862396
4.5615931 -0.81899673 -1.6796899 4282204205
4.5527954 -0.84628642 -1.6782969 4282071077
4.5502787 -0.87473613 -1.6793417 4282264867
4.522758 -0.89826256 -1.6709838 4280032535
4.5235896 -0.92731291 -1.6734215 4280098590
4.5205665 -0.95563263 -1.6744663 4280032284
4.521029 -0.98474723 -1.676904 4280032023
4.5176463 -1.0130838 -1.6779487 4280295708
4.493989 -1.0367851 -1.671332 4280032793
4.4884553 -1.0645564 -1.6716803 4279901462
4.5519714 -1.109147 -1.6984951 4279965460
4.5478082 -1.1377383 -1.6995399 4280030996
4.5380173 -1.1649232 -1.6984951 4279835157
4.5008674 -1.1848782 -1.687003 4279572244
4.5342417 -1.2234516 -1.702674 4279571985
4.4814696 -1.2387739 -1.6852618 4279505942
4.301496 -1.217531 -1.6187471 4280099106
4.2056999 -1.2183634 -1.584619 4281216548
4.1541018 -1.2311065 -1.5675551 4280426003
4.1823573 -1.2674375 -1.5814849 4279042816
4.1207719 -1.2764486 -1.5605901 4282069288
4.0833669 -1.2923828 -1.5490981 4285884503
4.0039973 -1.2943662 -1.5212386 4282394907
3.9950893 -1.3186164 -1.5208902 4280550912
3.785249 -1.2752279 -1.4418386 4291799179
3.7791264 -1.2990386 -1.4425352 4292255606
3.7578139 -1.317554 -1.4373115 4291465314
3.7549555 -1.3424786 -1.4394009 4291465061
3.754575 -1.36838 -1.4425352 4291531107
3.7434714 -1.3904134 -1.4414904 4291596900
3.729609 -1.4113675 -1.4394009 4292122989
3.7182543 -1.4332149 -1.4383563 4292056169
3.7093902 -1.4560026 -1.4383563 4291924583
3.7029982 -1.4797784 -1.4394009 4291926376
3.6955857 -1.5031776 -1.4400975 4291399781
3.6802292 -1.5233172 -1.4376597 4290677614
2.7138491 -1.182613 -1.0577246 4281422387
2.6902549 -1.1920338 -1.051108 4281548333
2.6948578 -1.2139037 -1.0559834 4280753435
2.3005643 0.98688889 -0.92067689 4282858538
3.9888089 1.6818979 -1.6229193 4281476381
3.9481814 1.6363128 -1.6017371 4282395418
3.955554 1.6110005 -1.6006601 4282525460
3.9636314 1.5860062 -1.5999421 4281934354
3.9437535 1.5500505 -1.5877354 4282394387
3.8922372 1.5023032 -1.5626041 4281869070
3.8952725 1.4760782 -1.5600909 4282201125
2.7477558 1.0221226 -1.085467 4285295198
3.7640383 1.3737811 -1.4990575 4281080346
3.7530646 1.3437401 -1.4911591 4281474843
3.7612388 1.3206863 -1.4911591 4281474841
3.7789798 1.3009238 -1.4951084 4281605914
3.7727408 1.2729392 -1.489364 4281736730
3.7725048 1.2471303 -1.4861329 4281736985
3.7791977 1.2236718 -1.4857738 4281868056
3.789304 1.201306 -1.4868509 4281671960
3.7948213 1.1774796 -1.4861329 4281606169
3.7957227 1.1522757 -1.4836197 4281540887
3.8546174 1.1443653 -1.5044428 4281409056
4.0838666 1.1851845 -1.5934798 4280558640
4.1853466 1.1868311 -1.6311768 4279640884
4.2429214 1.1750735 -1.6512818 4279312170
4.2978053 1.1619231 -1.6703099 4279441952
4.3220005 1.1400518 -1.6771313 4279245599
4.3298187 1.1137435 -1.6774904 4279311911
4.3320441 1.0860209 -1.6756952 4279509038
4.3440661 1.0607475 -1.6778493 4279771692
4.5048618 1.0707507 -1.7388827 4279178780
4.5504494 1.0521269 -1.7543205 4278980885
4.5395174 1.0202988 -1.7474991 4279046420
4.543869 0.99202764 -1.7467811 4280361762
4.4786506 0.9490428 -1.7187775 4281348653
4.4569621 0.91591054 -1.708007 4282138163
4.4505987 0.88617754 -1.7033397 4282203954
4.442205 0.85620409 -1.6979544 4282269746
4.4372821 0.82705075 -1.6940053 4282794802
4.4450293 0.80030447 -1.6950823 4282661422
4.4572124 0.77429247 -1.6979544 4284372555
4.5198727 0.75663221 -1.7205727 4280428321
4.5880113 0.73912185 -1.745345 4279968803
4.5380411 0.70253652 -1.7241628 4279771684
4.54319 0.67481542 -1.7245219 4279641124
4.5426245 0.64626938 -1.7227268 4282337349
4.5548282 0.61951548 -1.725958 4280757036
4.5696507 0.59299636 -1.7302662 4280760134
1.9063897 0.23573098 -0.69664866 4285295976
4.5478473 0.53350645 -1.7191366 4279183682
4.5222783 0.50239915 -1.708007 4279051318
4.5029979 0.47230676 -1.6993905 4282078817
4.3479109 0.42909876 -1.6383572 4288327604
4.3523202 0.4025842 -1.6390752 4288131757
4.3574982 0.37611181 -1.6401522 4291421407
4.3494902 0.34854844 -1.6362031 4282932828
4.365509 0.3228853 -1.6415883 4280234561
4.3655453 0.29596686 -1.6408703 4280630866
4.3588953 0.26865882 -1.6376392 4280562235
4.3613939 0.24195971 -1.6379981 4294179060
4.3674574 0.21542363 -1.6397933 4292864227
4.3649669 0.18846065 -1.6383572 4293586404
4.3790989 0.16215654 -1.6433835 4284175701
1.8658791 0.057852507 -0.67582554 4278716937
1.8307432 0.045528341 -0.66218281 4281870879
1.8309882 0.034294251 -0.66218281 4282393624
1.7845012 0.022481116 -0.6442318 4283053087
1.7724725 0.011455428 -0.63956457 4279831298
1.7529094 0.00057738775 -0.63202512 4280687642
1.7323471 -0.010054523 -0.62412673 4280950555
1.7341193 -0.020706518 -0.62484473 4281213727
1.7274274 -0.03122694 -0.62233162 4281214240
1.7244042 -0.041757241 -0.62125456 4281082654
1.7325115 -0.05259395 -0.62448573 4280884764
4.3463917 -0.18593723 -1.6311768 4290235076
4.3507619 -0.21287686 -1.6333309 4290302147
4.3540335 -0.2398257 -1.635126 4289973700
4.3617964 -0.26710832 -1.6387162 4289448385
4.3526254 -0.29336405 -1.635844 4288395956
4.336781 -0.31903735 -1.6304587 4288198578
4.3347421 -0.34564129 -1.6304587 4288396214
4.3455577 -0.37335193 -1.6354851 4287805100
4.3320327 -0.39898059 -1.6311768 4288329386
4.322072 -0.42482287 -1.6283046 4288525736
4.3240252 -0.45182005 -1.6300998 4288591528
4.3833251 -0.48522899 -1.6541541 4288130213
4.3325768 -0.53350347 -1.636921 4287931280
4.323668 -0.5593586 -1.6347669 4288257153
4.3201542 -0.58587766 -1.6347669 4289438353
4.355289 -0.6178841 -1.6498458 4283583297
4.4077334 -0.65294373 -1.671746 4280557848
4.4442291 -0.68624717 -1.6875429 4280887583
4.47403 -0.71898568 -1.7008266 4280757547
4.4750571 -0.74734724 -1.7029808 4282208079
4.4694681 -0.7746321 -1.7026217 4282537299
4.4673867 -0.80253702 -1.7036988 4282865485
4.4752245 -0.83232355 -1.708725 4282535741
4.4681997 -0.85941464 -1.708007 4282074677
4.4646735 -0.88717872 -1.708725 4282337850
4.4527459 -0.91324365 -1.7062119 4282469699
4.4598422 -0.9432528 -1.7112381 4281418814
4.4621778 -0.97238934 -1.7144693 4279181603
4.4524846 -0.9989329 -1.7130332 4279313187
4.4499092 -1.0270739 -1.7144693 4279706148
4.4526043 -1.0565143 -1.7180595 4279836710
4.4451308 -1.083594 -1.7177005 4279771430
4.4393039 -1.111075 -1.7180595 4279771941
4.4387307 -1.1399188 -1.7205727 4279836710
4.4497037 -1.1718884 -1.727753 4279639331
4.4226055 -1.1938164 -1.7198546 4279310366
4.3558273 -1.2045075 -1.6961594 4280232243
4.2836981 -1.2128987 -1.6703099 4280035382
4.2788649 -1.2399397 -1.671387 4279640622
4.2863879 -1.2706819 -1.6774904 4280165675
4.24189 -1.2858546 -1.6627705 4279244826
4.1403141 -1.2828456 -1.6250734 4279836963
4.1412625 -1.3110436 -1.6286637 4279376412
4.1340284 -1.3367165 -1.6290227 4279903267
4.0867529 -1.3491796 -1.6132258 4290432455
4.0385976 -1.3608155 -1.5970699 4288392096
3.723911 -1.280247 -1.4724901 4289503629
3.6860411 -1.2925684 -1.4602834 4290353012
3.6745255 -1.313904 -1.4588474 4290808160
3.6681478 -1.3370651 -1.4595654 4291071079
3.6642492 -1.3611728 -1.4613605 4290611807
3.6567013 -1.383961 -1.4617195 4291070816
3.6498821 -1.4070437 -1.4624375 4291465059
3.6429176 -1.4300946 -1.4631556 4291727204
3.6375406 -1.4538063 -1.4645916 4291596647
3.6406546 -1.4810232 -1.469618 4291532134
3.6297741 -1.5026197 -1.4689 4291269476
3.6222062 -1.5255882 -1.469618 4291466352
2.7227948 -1.1862216 -1.1001868 4282143542
2.7214382 -1.2055529 -1.1026999 4281946684
2.7114367 -1.2210786 -1.1016228 4279045381
3.9506752 1.6939797 -1.662084 4282727469
3.915601 1.6505572 -1.6425475 4282791966
3.9351006 1.6304171 -1.6466023 4281278727
3.9501958 1.6083457 -1.648814 4280949001
3.9634418 1.5854594 -1.6502883 4280620561
3.9185941 1.5396786 -1.6270659 4281475100
3.8663986 1.4918294 -1.6008945 4281345565
2.80896 1.0637233 -1.1486083 4282989873
2.6420622 0.98195058 -1.0752547 4284635987
3.688004 1.3454778 -1.5142708 4281474328
3.6786878 1.3165536 -1.5068985 4281803030
3.6831887 1.2927243 -1.5054241 4281803030
3.6892934 1.2694949 -1.504687 4281934616
3.6934907 1.2456445 -1.5032125 4281869339
3.6940038 1.2206229 -1.5002636 4281935130
3.6908119 1.1944959 -1.4958402 4282000407
3.6998439 1.1723891 -1.4965775 4282065948
3.7122941 1.151319 -1.4987891 4281737500
3.7344096 1.1331121 -1.5050555 4281344282
4.0603046 1.2049434 -1.6370183 4280492845
4.118506 1.1947837 -1.6580292 4279969338
4.1686845 1.1816709 -1.6757226 4279444285
4.2206473 1.1684833 -1.6941531 4279575093
4.2717071 1.1544594 -1.7122151 4279179557
4.3245487 1.1403267 -1.7310143 4279179806
4.3269634 1.1126117 -1.7291712 4279114015
4.330102 1.0851361 -1.7276968 4279245350
4.3357754 1.058326 -1.7273282 4279968819
4.3430924 1.0319175 -1.7276968 4279442729
4.4335675 1.0247393 -1.7619777 4279245088
4.4443069 0.99853623 -1.7638206 4279310366
4.4458094 0.97025543 -1.7619777 4280296487
4.4462228 0.94180101 -1.759766 4281019692
4.4491858 0.91393995 -1.7586601 4280888106
4.4437704 0.88444275 -1.7542368 4280954665
4.4482007 0.8569836 -1.7538682 4281611306
4.4597721 0.83086717 -1.7564484 4283187248
4.4647865 0.80348688 -1.7564484 4283319859
4.4329987 0.76970583 -1.741704 4283650370
4.5018144 0.75324589 -1.7675068 4281216817
4.4531231 0.71702433 -1.7461274 4279968045
4.4601946 0.69011408 -1.7472332 4279510830
4.4579091 0.66177666 -1.7446529 4280625460
4.4618859 0.63441104 -1.7446529 4283252817
4.4684577 0.60739779 -1.7457588 4281087554
1.7950979 0.23209351 -0.67531139 4285358688
4.4635816 0.5510335 -1.7409668 4280564306
4.4641089 0.52330965 -1.7398609 4280499793
4.4413671 0.49303007 -1.7295399 4280366926
4.3897638 0.46003824 -1.7077918 4281023314
4.2999964 0.42394871 -1.6709306 4280298814
4.3015909 0.39747065 -1.670562 4285693582
4.2983918 0.37058851 -1.6683503 4286614163
4.2913189 0.34346294 -1.6646643 4291286745
4.2942724 0.31719413 -1.6650329 4280827465
4.2942829 0.29071292 -1.6642956 4281026137
4.2894917 0.26395682 -1.6617154 4282798170
4.2965994 0.23794194 -1.663927 4281412397
4.29705 0.21152808 -1.6635584 4282928203
4.2815499 0.18443322 -1.6569234 4282992456
4.3364797 0.16016312 -1.6783029 4285228389
1.8389356 0.055949051 -0.68710697 4279179018
1.8178704 0.044131875 -0.67862892 4279700737
1.8032362 0.032697514 -0.6727311 4282460698
1.7978259 0.021561936 -0.67051947 4282920731
1.7756149 0.010385111 -0.66167277 4280817423
1.7607719 -0.00051556836 -0.65577501 4280556570
1.7393554 -0.011196193 -0.64729697 4280688156
1.7327473 -0.021791028 -0.64471668 4281410338
1.7167807 -0.032137536 -0.63845026 4281280031
1.7193391 -0.042738304 -0.63955611 4281018140
1.7199736 -0.053315338 -0.63992471 4281016346
4.3736711 -0.16063693 -1.6930473 4279176977
4.2890162 -0.18390892 -1.6598723 4286021506
4.2803793 -0.20986024 -1.6569234 4284574572
4.2864366 -0.2365279 -1.6598723 4285495672
4.2895441 -0.26310784 -1.6617154 4284114530
4.2906308 -0.28961006 -1.6628212 4283522647
4.2887735 -0.31593144 -1.6628212 4282272578
4.2821207 -0.34187225 -1.6609781 4281944383
4.2864261 -0.36869633 -1.6635584 4281878587
4.2813058 -0.3947351 -1.6624526 4282338363
4.2769527 -0.42081577 -1.6617154 4278258688
4.2752147 -0.44714716 -1.662084 4278391044
4.2705431 -0.47316673 -1.6613467 4278259721
4.270329 -0.49968472 -1.6624526 4278390541
4.2399058 -0.54895377 -1.6528686 4278653965
4.2558022 -0.57757908 -1.6606095 4278520072
4.2724266 -0.60655034 -1.6687189 4283454808
4.3265576 -0.64132571 -1.6919415 4286348153
4.3519406 -0.67239517 -1.703737 4281807664
4.4064741 -0.70851469 -1.7273282 4280757036
4.398376 -0.73492718 -1.7258537 4284641906
4.3928676 -0.76174265 -1.7254851 4285828998
4.3817062 -0.78753304 -1.7229048 4285762429
4.3749638 -0.81406426 -1.7221676 4285037164
4.3671479 -0.8403669 -1.7210617 4284377946
4.3628206 -0.86732841 -1.7214304 4283653963
4.3647022 -0.89557475 -1.7243793 4282996039
4.3700385 -0.92464548 -1.7288026 4282602313
4.368825 -0.95243096 -1.7306457 4282404680
4.3774114 -0.98247302 -1.7365434 4282209095
4.3758297 -1.0103583 -1.7383865 4282405709
4.3632169 -1.0356877 -1.7358062 4281680189
4.359489 -1.0631003 -1.736912 4280626729
4.3537855 -1.0900552 -1.7372806 4282138938
4.3488159 -1.1172111 -1.7380179 4280955178
4.3454747 -1.1448203 -1.7394923 4280231203
4.2872109 -1.1576626 -1.7184814 4280363561
4.2845073 -1.1851845 -1.7203245 4280100910
4.277154 -1.2114515 -1.7203245 4279837485
4.2741046 -1.2389656 -1.7221676 4279639848
4.2744441 -1.2675443 -1.7254851 4279377953
4.2674756 -1.2940174 -1.7258537 4279376925
4.2434716 -1.3152285 -1.7192187 4279769888
4.1839175 -1.3249772 -1.6978393 4279705378
