# .PCD v0.7 - Point Cloud Data file format
VERSION 0.7
FIELDS x y z rgb
SIZE 4 4 4 4
TYPE F F F U
COUNT 1 1 1 1
WIDTH 1112
HEIGHT 1
VIEWPOINT 0 0 0 1 0 0 0
POINTS 1112
DATA ascii
5.63905 -0.87084824 -1.3057562 4282668891
5.6038113 -0.90064263 -1.2986405 4283783764
4.8119473 -0.80363822 -1.1106471 4284702031
4.8078847 -0.83331496 -1.1108766 4284438859
4.8074708 -0.86366075 -1.1120243 4283388238
5.5197372 -1.0266787 -1.2841794 4282799728
5.4779701 -1.0537229 -1.2756865 4283196528
5.3511195 -1.0634032 -1.2467644 4281745230
5.4036069 -1.1083462 -1.2609959 4279639856
5.3443327 -1.1304001 -1.2483711 4282736494
5.3306394 -1.1617198 -1.2467644 4282147445
5.3110652 -1.1916353 -1.2437804 4282670960
5.2714095 -1.2167559 -1.235976 4283193957
5.243958 -1.2443572 -1.2311556 4283259225
4.8088174 -1.1722827 -1.1274035 4284177495
4.7835951 -1.1972755 -1.1230422 4287989377
4.8185797 -1.2375026 -1.1333716 4284435525
4.8419552 -1.2752283 -1.1409464 4283117098
4.8293409 -1.3036453 -1.1397986 4283121208
4.8146839 -1.3314366 -1.1381919 4284439127
4.8476286 -1.3726244 -1.1482917 4294572789
4.822288 -1.3974653 -1.1441599 4294770425
4.8117566 -1.4264746 -1.1437008 4294967039
4.8252678 -1.4627506 -1.1492099 4294964726
4.7771554 -1.4802283 -1.1395692 4292596688
4.6195216 -1.4624981 -1.1028427 4289567882
4.6002741 -1.4875205 -1.1003177 4290291076
4.5790453 -1.5117517 -1.0973338 4292925107
4.5540037 -1.5345348 -1.0934316 4294966496
4.5196519 -1.5539026 -1.087234 4294967280
4.5504432 -1.5957807 -1.0973338 4294901468
4.5194879 -1.6161325 -1.0920544 4290356335
4.4957705 -1.6388319 -1.0886112 4290879848
4.4847174 -1.6660476 -1.0883816 4289499490
4.4889741 -1.6990476 -1.0920544 4288778087
4.4848218 -1.7290107 -1.0936611 4294637528
3.0215905 1.0811653 -0.75588906 4292535525
3.0391562 1.0664653 -0.75877792 4294900991
3.073173 1.0572798 -0.76599997 4280557601
3.1007535 1.0455436 -0.77153695 4287996317
3.9437919 1.2497711 -0.98603296 4287074447
4.0783772 1.2649754 -1.0190139 4287469464
3.9959788 1.2125642 -0.99566245 4286087812
3.9493804 1.1719921 -0.98169971 4293914609
4.1028347 1.1902329 -1.0194952 4284702299
4.7702065 1.3523557 -1.1896958 4294240739
4.7915092 1.3266898 -1.1930661 4284435264
4.8126755 1.3008133 -1.1964364 4294632138
4.8365202 1.2754699 -1.200529 4289565301
4.8057175 1.2358494 -1.1906588 4291144594
4.835804 1.2120072 -1.1964364 4294827444
4.8073215 1.1735573 -1.1872885 4293641881
4.8408704 1.1503271 -1.1940291 4293707176
4.8705325 1.125854 -1.1998068 4292658360
4.9966617 1.1227869 -1.2301395 4286942871
5.1580167 1.1258795 -1.2693795 4292080372
5.1866651 1.0988408 -1.2749165 4292345077
5.2474995 1.0781415 -1.2886385 4281289030
5.261631 1.0474406 -1.2905643 4286684836
5.3241868 1.025984 -1.3047677 4282932844
5.353281 0.99756837 -1.3105454 4282609532
5.3755393 0.96762913 -1.314638 4282477693
5.4043255 0.93861818 -1.3204156 4282477184
5.4300852 0.90880895 -1.3254712 4281952639
5.4652634 0.88026416 -1.3329339 4281624189
5.4926219 0.85013258 -1.3384708 4281688703
5.5178957 0.81941271 -1.3435264 4281293688
5.5468416 0.78896201 -1.3495448 4281949555
5.5775447 0.7584489 -1.3560447 4287339696
5.6071186 0.72746342 -1.3623037 4282536813
5.6259251 0.69483256 -1.3659148 4281817461
5.6483979 0.66245127 -1.3704888 4281554546
5.6639318 0.62906897 -1.3733777 4281292403
5.7072616 0.59846199 -1.3832479 4281947768
5.7185535 0.56419557 -1.3851737 4281024344
5.728673 0.52972353 -1.3868588 4287667883
5.7501874 0.4961521 -1.3914329 4281812304
1.8164656 0.14470775 -0.41187689 4281214500
1.8105438 0.13305707 -0.41019174 4280621590
1.8248831 0.12286677 -0.41356206 4280624162
5.8090696 0.35787982 -1.4034697 4281483339
5.847981 0.32427874 -1.4126177 4280693563
5.8391972 0.28786224 -1.4099696 4280230700
5.8020663 0.25034678 -1.4003401 4282990657
1.8006355 0.065820649 -0.40682143 4284306250
1.8427206 0.056066621 -0.41717309 4286081883
1.8061591 0.043840028 -0.40802512 4286080851
1.7035296 0.030824935 -0.38250709 4287988858
1.6930109 0.020236718 -0.37985897 4281871657
1.682427 0.0097787483 -0.37721089 4281610027
1.6853671 -0.00054353464 -0.37793308 4281873199
1.6998907 -0.010968674 -0.38154414 4282595639
1.7143493 -0.021572063 -0.38515517 4282595382
1.7180663 -0.032160725 -0.38611811 4282660405
1.7178366 -0.042701978 -0.38611811 4282331957
1.7408258 -0.053947531 -0.3918958 4282266677
1.7695603 -0.065688968 -0.39911789 4283452232
5.7420292 -0.24581645 -1.3854145 4280033575
5.800518 -0.28397468 -1.4003401 4280295205
5.7841291 -0.31876248 -1.396729 4284701796
5.7830334 -0.35430637 -1.3969698 4282200379
5.7807508 -0.38978374 -1.3969698 4283121221
5.5469007 -0.40826735 -1.3394338 4281411114
5.8016553 -0.46277153 -1.4034697 4289306787
5.8083773 -0.4991903 -1.405877 4288321693
5.7926397 -0.53366542 -1.4027474 4287532947
5.7805634 -0.56834531 -1.4005808 4282005823
5.7682786 -0.60289723 -1.3984143 4281742393
5.7442122 -0.63604021 -1.3933587 4281282099
5.7180281 -0.66868567 -1.3878218 4281482563
5.7012939 -0.70221835 -1.3846922 4282341738
5.6824393 -0.73532218 -1.3810812 4282407529
5.6489658 -0.76626718 -1.373859 4287010988
5.6335874 -0.7994163 -1.3712111 4282077281
5.6074529 -0.83084303 -1.3659148 4282670184
5.5821047 -0.86212718 -1.3608594 4283194978
5.5489187 -0.89190096 -1.353878 4283914063
4.8042593 -0.8026371 -1.1680295 4284570186
4.81072 -0.83408737 -1.1709185 4284175426
4.8016906 -0.86290383 -1.1699555 4282729536
5.4289789 -1.009902 -1.3295636 4283784552
5.1758137 -0.99575752 -1.2672129 4280958286
5.3657203 -1.0664309 -1.3168046 4280561734
5.301075 -1.0874492 -1.3021197 4281549658
5.3132954 -1.1239688 -1.3069344 4282934394
5.2920732 -1.1534522 -1.3033234 4282933875
5.2413301 -1.1761359 -1.2922494 4282408553
5.2122626 -1.2032573 -1.2867125 4282408293
5.1792822 -1.2291708 -1.2802126 4282473575
5.0905428 -1.2411727 -1.2595093 4282473320
4.9453592 -1.2380036 -1.2243619 4282404957
4.9292088 -1.266153 -1.2221953 4282335300
4.8087111 -1.2667316 -1.1933069 4283057474
4.7080755 -1.2711886 -1.169474 4283648840
4.6927028 -1.2979847 -1.1675481 4287992200
4.6351523 -1.3127487 -1.1547891 4293979620
4.6698956 -1.3535838 -1.1658629 4292006602
4.7080331 -1.3959972 -1.1778997 4294899443
4.6947341 -1.4234518 -1.1766961 4294899444
4.6859112 -1.4522313 -1.1766961 4294901754
4.6584053 -1.4751005 -1.1718813 4294702318
4.5532155 -1.472617 -1.1468447 4288973433
4.4814172 -1.4798476 -1.1304747 4290223997
4.4676533 -1.5057683 -1.129271 4290683766
4.4519048 -1.5309452 -1.1275859 4289895281
4.4424272 -1.5582328 -1.1275859 4289437547
4.4510622 -1.5919944 -1.1324006 4293516202
4.4941034 -1.6385459 -1.1463633 4287724625
4.4712262 -1.6613607 -1.142993 4288580961
4.465487 -1.6904814 -1.1441966 4288515168
4.4713326 -1.724131 -1.1485299 4287201629
4.4615731 -1.7518885 -1.1487707 4293125591
4.0385361 1.5012802 -1.0827978 4292402405
4.0776725 1.487412 -1.0911217 4293848275
3.0088663 1.0767806 -0.79272383 4294373867
4.0864868 1.4340574 -1.0885993 4282530098
3.0959728 1.0652694 -0.81315511 4282795590
3.0767756 1.0375975 -0.80609244 4286680459
4.0249004 1.3297651 -1.0646366 4288192926
4.0854635 1.3220203 -1.0790142 4288060057
4.0796609 1.2925447 -1.0752306 4285297012
3.8146324 1.1572899 -0.99880242 4292991447
4.0109167 1.1899928 -1.0502591 4284370246
4.1148 1.1933829 -1.0764918 4288252284
4.7169719 1.3366457 -1.2376721 4292594620
4.707365 1.3027751 -1.2328795 4285158211
4.7115331 1.2728575 -1.2318707 4294960855
4.2485847 1.1199028 -1.1049948 4291143054
4.7071166 1.2098868 -1.2265736 4294625945
4.7191453 1.182157 -1.2278348 4294823838
4.7244296 1.1527201 -1.2273303 4294233757
4.7455363 1.1270627 -1.2311139 4292860092
4.9956174 1.1541015 -1.2961913 4282207578
4.9997721 1.1227913 -1.2954346 4285169805
5.0122404 1.0933291 -1.2969481 4292931823
5.0548286 1.0701673 -1.3065331 4286614417
5.1674657 1.0609199 -1.3347838 4284511622
3.2348995 0.64363796 -0.81946105 4287341739
5.2371087 1.0084008 -1.3499181 4283006093
5.2907648 0.98510045 -1.36253 4282873478
5.3176622 0.9563852 -1.3680793 4282541946
5.3415456 0.92688066 -1.3728718 4282937214
5.3891268 0.90110689 -1.3839703 4282544255
5.4088855 0.87032771 -1.3877538 4282281596
5.4370756 0.84067017 -1.3938075 4282410617
5.4689331 0.81126684 -1.4008702 4283524211
5.5025496 0.78177631 -1.4084374 4285886329
5.5312138 0.75125277 -1.4147433 4287597191
5.551074 0.71928823 -1.4187791 4288384388
5.5707493 0.6871081 -1.422815 4281014543
5.5940828 0.65516359 -1.4278597 4279765765
5.6172328 0.62295854 -1.4329045 4280884246
5.6382732 0.59029263 -1.4374448 4280883986
5.6600862 0.55748659 -1.4422373 4287857526
5.670145 0.5233686 -1.444003 4283645231
5.6558962 0.48707408 -1.4394627 4285617739
5.6751761 0.45367074 -1.4437507 4285486923
5.7077694 0.42104477 -1.4515702 4286013779
1.82521 0.12365006 -0.4365634 4286347381
5.7385845 0.35257038 -1.4583806 4288316024
5.687499 0.31441832 -1.4445075 4288644735
5.69802 0.27994135 -1.4467776 4285091399
5.692863 0.24468327 -1.4450119 4283183402
1.8107377 0.066963941 -0.43202311 4283450422
1.8169178 0.056029923 -0.43353653 4286409559
1.7872388 0.044146255 -0.42571715 4286739033
1.7400683 0.032309473 -0.41335747 4289700495
1.7305579 0.021513887 -0.41083509 4281938476
1.7045308 0.010736376 -0.40402466 4281676331
1.7161766 0.00027660932 -0.4070515 4281610027
1.7084048 -0.010205652 -0.40503362 4282661432
1.717986 -0.020807415 -0.407556 4282726968
1.7342736 -0.031652261 -0.41184404 4282857784
1.7524266 -0.042745374 -0.41663659 4282332468
1.7637378 -0.053854212 -0.41966343 4282332727
1.7827145 -0.065388896 -0.42470819 4282070329
1.8132163 -0.077657819 -0.43277982 4281150003
5.5298514 -0.27163756 -1.4028882 4290422681
5.3715577 -0.29690021 -1.3620255 4289896336
5.3715668 -0.32997268 -1.36253 4287396713
5.3993702 -0.3649509 -1.3703494 4290686361
5.3873787 -0.39736149 -1.3678271 4291935399
5.5131288 -0.44067383 -1.4013747 4287591780
5.5016441 -0.47374564 -1.3991046 4289367934
5.6556945 -0.52200127 -1.4402194 4285288768
5.6562376 -0.55707371 -1.4412284 4284304701
5.6719608 -0.59378558 -1.4462731 4283054635
5.6585927 -0.62750971 -1.4437507 4284043329
5.6479082 -0.66143006 -1.441985 4283125315
5.6523871 -0.69713914 -1.4442552 4282602841
5.6211333 -0.72832507 -1.4371926 4282208604
5.6127234 -0.76228082 -1.4361836 4282406500
4.7313375 -0.67210734 -1.2053856 4284051071
5.5570016 -0.82428181 -1.4240761 4282537832
5.5365386 -0.85599667 -1.4200404 4283325796
5.4958334 -0.88426214 -1.4107075 4283915349
4.833673 -0.80813289 -1.2371676 4284308303
4.8286238 -0.83777654 -1.2371676 4284043335
4.8319631 -0.8689307 -1.2394377 4283912266
5.3402457 -0.99424177 -1.3756464 4283059793
5.3635011 -1.0326638 -1.3834658 4282536797
5.1587105 -1.0260857 -1.330748 4281549902
5.3049259 -1.0890604 -1.3713584 4280760637
5.1476235 -1.0897148 -1.3312525 4289045933
5.1493492 -1.123136 -1.3335226 4282336068
5.1848469 -1.1642542 -1.3448733 4281484871
5.1634631 -1.1927778 -1.3410897 4284246383
4.9865837 -1.1841811 -1.2956868 4288522930
4.7799277 -1.1661186 -1.2422124 4286680727
4.8402653 -1.2123591 -1.2603735 4281219907
4.9742508 -1.2784176 -1.2984614 4282403152
4.9354353 -1.3007743 -1.2901376 4283324254
4.7956443 -1.2954414 -1.254572 4284440928
4.6132097 -1.2765687 -1.2074035 4286478444
4.6062212 -1.3051145 -1.2076558 4292860882
4.6037021 -1.3349707 -1.2091691 4293979363
4.5954247 -1.3631932 -1.2091691 4294573040
4.5841956 -1.3905218 -1.2084124 4294245102
4.5894408 -1.4229232 -1.212196 4294573037
4.5824685 -1.4516413 -1.2127005 4287000667
4.5688715 -1.4782417 -1.2114393 4286275653
4.5211258 -1.4934968 -1.2008452 4286804818
4.4513597 -1.5008005 -1.1841975 4288647530
4.4338317 -1.5252516 -1.1819274 4289566827
4.4216504 -1.5514671 -1.1811707 4289369964
4.4138703 -1.5792207 -1.1816752 4289108081
4.4195509 -1.6119119 -1.1859633 4289238909
4.4576483 -1.6568717 -1.1993319 4285554751
4.497169 -1.7030444 -1.213205 4287068239
4.553442 -1.7563819 -1.2318707 4288779629
4.5434804 -1.784642 -1.2321228 4294768609
4.4884195 -1.7948776 -1.2197632 4292598745
4.0207872 1.5522529 -1.1353724 4286876814
4.033844 1.5289211 -1.1364251 4293651684
3.9762456 1.479231 -1.1169484 4287660897
2.8534596 1.0412948 -0.78821218 4294308310
4.0277009 1.4423685 -1.1266868 4290029187
4.0128112 1.4093097 -1.1198436 4281740574
3.1758709 1.0932699 -0.87585765 4292334548
4.0855579 1.3787931 -1.1358988 4287532662
4.0866141 1.3512738 -1.1337932 4286875506
4.0663795 1.316951 -1.125634 4285624941
4.1130033 1.3042333 -1.1366884 4291546310
3.6814647 1.1424489 -1.0111421 4292663760
3.9883957 1.2110182 -1.0966821 4288123784
4.5191607 1.3421074 -1.245653 4286739563
4.1085682 1.1926726 -1.1266868 4284830796
4.6039658 1.3060496 -1.2651298 4291538590
4.5430984 1.2586972 -1.245653 4290878591
4.5498052 1.2305454 -1.2453898 4292986010
4.6020417 1.2144319 -1.2580234 4294825898
4.6038013 1.1847274 -1.2564442 4294495642
4.603498 1.1545774 -1.2543386 4294234270
4.677969 1.1428099 -1.273289 4290818703
4.9063821 1.1668127 -1.335404 4283590758
4.9284873 1.1401684 -1.3396152 4288726475
4.9852734 1.1211364 -1.3535649 4282930774
4.9750948 1.0868163 -1.3488272 4290492080
5.0033746 1.0608766 -1.3548808 4293784302
4.9247465 1.0126489 -1.3311929 4294243834
4.9601965 0.98826271 -1.339352 4294440702
5.0476298 0.97353989 -1.3619872 4282670701
5.2479191 0.97885615 -1.4159431 4283595144
5.2604728 0.9478361 -1.4177855 4283136393
5.2937522 0.92033863 -1.4254184 4282344564
5.3249884 0.89214915 -1.4325247 4282937216
5.3675065 0.8654561 -1.4427896 4282608766
5.392736 0.83561194 -1.4483167 4282345594
5.4149375 0.8050645 -1.4530543 4281948779
5.4426975 0.77509314 -1.4593711 4281486686
5.4664683 0.74428993 -1.464635 4282474359
5.5082426 0.71558934 -1.4748999 4281490036
5.5192318 0.68260831 -1.4767423 4281292908
5.5539761 0.65233773 -1.4851646 4281881706
5.547328 0.61707145 -1.4822694 4281812579
5.5529284 0.583224 -1.4827958 4284113770
5.5535221 0.54885566 -1.4820062 4280626230
5.5548644 0.51459116 -1.4814799 4282338399
1.8546498 0.15955622 -0.46737188 4282269246
1.8565555 0.14825071 -0.4676351 4281676600
5.6355519 0.41761929 -1.5012197 4281747548
5.5918078 0.37988392 -1.4885862 4281484628
5.5853672 0.34502897 -1.4862174 4280826700
5.5632982 0.30940691 -1.4796374 4281484370
5.5516024 0.27459526 -1.4759526 4282931563
5.313189 0.23008053 -1.4104159 4282865508
1.8187897 0.066811182 -0.4560543 4284172605
1.7892731 0.054716341 -0.44789511 4286211151
1.8397259 0.04499504 -0.46158147 4286868560
1.7541208 0.032078587 -0.43815672 4288975482
1.7398148 0.021129426 -0.43420872 4281411104
1.7235113 0.010344149 -0.42973435 4281610028
1.710036 -0.00023867894 -0.42604953 4281873199
1.7071081 -0.010715079 -0.42525995 4282595639
1.7060456 -0.021178182 -0.42499673 4282726968
1.716494 -0.031835429 -0.42789194 4282726198
1.7201242 -0.042459637 -0.42894474 4282528819
1.7285099 -0.05327493 -0.43131354 4282332210
5.2413559 -0.19136018 -1.3904128 4283124306
5.2352638 -0.22331244 -1.3890967 4283914079
1.7561446 -0.086486481 -0.43920952 4281217589
5.2417626 -0.28806761 -1.3917288 4283189317
5.2928586 -0.32344985 -1.4062047 4283912782
5.2686353 -0.35443571 -1.4001511 4285425251
5.3260155 -0.3911244 -1.4164696 4286478193
5.3764095 -0.42799601 -1.4309455 4284963410
5.3909845 -0.46245748 -1.4356831 4285096278
5.4062991 -0.49720198 -1.4406838 4282729011
5.4396319 -0.53393847 -1.4506855 4282991930
5.5043812 -0.57440019 -1.4693726 4282464816
5.5247264 -0.61080897 -1.4759526 4282860343
5.3742619 -0.62760723 -1.4356831 4282664247
5.5196877 -0.67891258 -1.4767423 4282927936
5.4532251 -0.70474398 -1.4596343 4283323212
5.4076891 -0.73263061 -1.4483167 4283981402
5.326674 -0.75498348 -1.4272608 4288586403
5.4507818 -0.80669302 -1.4627926 4281151796
5.4724274 -0.8442362 -1.4701623 4281480759
4.8755956 -0.78294843 -1.3067153 4283717201
4.846909 -0.80888534 -1.3001354 4284307789
4.8361511 -0.83762372 -1.2985561 4284503110
4.8413663 -0.86915469 -1.3014513 4284173893
5.312108 -0.9872309 -1.4335775 4281278239
5.2822647 -1.0152597 -1.4269975 4287794570
5.0582852 -1.004482 -1.3664616 4284440413
4.8715053 -0.99854189 -1.3161905 4286677629
4.7718377 -1.008684 -1.2901337 4288452500
4.8805671 -1.0629646 -1.322244 4283845956
4.9793916 -1.1165078 -1.3517225 4281414448
4.9827876 -1.1494226 -1.3546176 4282007111
4.9831514 -1.181754 -1.3567232 4281680459
4.9842429 -1.2143612 -1.359092 4281615695
4.9813776 -1.2460907 -1.3604081 4281615954
4.9166336 -1.2620143 -1.3443528 4281815127
4.8677444 -1.2813619 -1.332772 4282078815
4.8467498 -1.3076905 -1.3290873 4282011993
4.6247497 -1.2783406 -1.2685513 4280561461
4.5156298 -1.2780807 -1.2398626 4293652977
4.4984355 -1.303082 -1.2372307 4294375158
4.4959054 -1.3323026 -1.2388098 4294966264
4.5024195 -1.3643366 -1.243021 4293387736
4.4856687 -1.3893704 -1.2406522 4285228106
4.4899373 -1.4209398 -1.244337 4289830015
4.4765434 -1.4469804 -1.243021 4286541394
4.4822402 -1.4792546 -1.2472322 4286015823
4.449307 -1.4987282 -1.240389 4285818184
4.4628377 -1.5338339 -1.246969 4285423426
4.4433265 -1.5576801 -1.2440737 4286542416
4.4409533 -1.5875107 -1.2461795 4285556803
4.4510727 -1.621992 -1.2519698 4287200348
4.4672661 -1.6590061 -1.2596025 4287726179
4.4958053 -1.7010565 -1.2709202 4286606922
4.4708791 -1.7230628 -1.266709 4288119898
4.4692035 -1.7539854 -1.269341 4288186969
4.4762769 -1.7885298 -1.2746049 4288057203
4.4214239 -1.7981638 -1.2617081 4293324515
4.0213418 1.5521204 -1.1896238 4294375156
2.7565761 1.0447003 -0.80071014 4294638320
2.7629344 1.0277665 -0.80071014 4285160240
4.0130959 1.4646537 -1.1786454 4287066431
4.0274396 1.4419466 -1.1802921 4285359173
3.1796987 1.1165531 -0.92119926 4280294149
3.9848201 1.3717626 -1.1621776 4285682217
3.9804058 1.3429837 -1.1583351 4293053337
3.9840059 1.3170265 -1.1569628 4293780946
3.9709704 1.2857454 -1.1506501 4293123282
3.7074518 1.1753653 -1.0694091 4289834902
4.1581955 1.2901909 -1.2019746 4291675552
4.2387266 1.2867122 -1.2236573 4285949519
4.4281478 1.314576 -1.2777264 4282789160
4.1877041 1.2153091 -1.2038959 4294830295
4.4726257 1.2682668 -1.2862347 4284367654
4.4747629 1.23926 -1.284588 4293312408
4.4776416 1.2105255 -1.2832156 4294625180
4.4868445 1.1835189 -1.2837646 4294954913
4.4986787 1.1571633 -1.2851368 4293047965
4.5737848 1.1466018 -1.3051727 4292394168
4.8226848 1.1775742 -1.3762585 4292211186
4.8447881 1.1515172 -1.3806499 4286882464
4.8498888 1.1213353 -1.380101 4290168254
4.825717 1.0845997 -1.3710437 4292929504
4.7279978 1.0322111 -1.3405783 4294835699
4.7295389 1.0021849 -1.339206 4294901225
4.7440767 0.97488743 -1.3416762 4293848277
4.7622294 0.94820011 -1.3452442 4294571749
4.7349095 0.91259485 -1.335638 4294507255
5.0400906 0.93935293 -1.4226427 4285104010
5.2208428 0.93991727 -1.4734184 4283329904
5.0682921 0.88039356 -1.4275831 4282275678
5.2632813 0.8810153 -1.4824756 4283392878
5.321753 0.85726398 -1.4978455 4283987325
5.3449678 0.82738781 -1.5030603 4282145895
5.3661141 0.79697645 -1.5077262 4283199096
5.4061279 0.76904398 -1.5178813 4282475891
5.4164619 0.73663521 -1.519528 4281358701
5.389411 0.69930559 -1.5104707 4281161833
5.397418 0.66669488 -1.5115687 4281160029
4.9286532 0.57814616 -1.3757095 4281618516
4.9340196 0.54810584 -1.3762585 4281680193
4.8148756 0.50499183 -1.3411273 4284967010
4.783433 0.47204193 -1.3312466 4289701543
1.8667669 0.17289507 -0.49440974 4289770677
4.7984457 0.41413239 -1.3339913 4292728791
4.7654309 0.38184297 -1.3238361 4290099644
4.7619305 0.35217062 -1.3221893 4291678676
4.7726359 0.32352993 -1.3246595 4281482048
4.7889285 0.29512557 -1.3287765 4281485395
5.3888073 0.29886705 -1.4997667 4281289046
5.3482809 0.26371565 -1.4876903 4282212228
5.1912818 0.22406422 -1.442404 4282474359
1.8186904 0.067571424 -0.47876537 4283582527
1.8238765 0.056558892 -0.48013765 4284766023
1.8587961 0.046220064 -0.49001831 4287000400
1.7657857 0.033086777 -0.46339542 4287461726
1.7438406 0.021977672 -0.45708278 4281147934
1.7400962 0.011253236 -0.45598495 4281543213
1.7112846 0.0005728472 -0.44775105 4281807406
1.7160639 -0.0099563859 -0.44912335 4282793272
1.7178934 -0.020509157 -0.44967228 4282792759
1.730234 -0.031278301 -0.45324031 4282726450
1.7386613 -0.042105675 -0.45571047 4282397999
5.1820583 -0.18991403 -1.4393849 4282405219
5.178874 -0.2216246 -1.438836 4282671221
5.1505241 -0.25207922 -1.431151 4283131513
5.1767249 -0.28521365 -1.4391105 4284051584
5.1201687 -0.31361696 -1.4234661 4285168012
5.1354175 -0.34619331 -1.4284065 4284048506
5.1610079 -0.37974557 -1.4363658 4286151043
5.2946944 -0.42227128 -1.4753395 4288188044
5.3312845 -0.45812929 -1.4865925 4282266667
5.3178401 -0.48986179 -1.4835734 4284968291
5.3281317 -0.52380025 -1.4874159 4283124798
5.3276863 -0.55678332 -1.4882393 4283847752
5.3614445 -0.59359241 -1.4989433 4281478952
5.3557911 -0.62625492 -1.4983944 4282071606
5.3089008 -0.65381336 -1.4860436 4281875769
5.347703 -0.69193161 -1.4983944 4281612854
5.3490734 -0.72550732 -1.5000412 4281941819
5.3511853 -0.75926101 -1.5019624 4281611314
4.7633371 -0.70565295 -1.3337168 4289439652
5.3348131 -0.82384336 -1.5000412 4281612078
4.8625512 -0.78145581 -1.3650055 4283585355
4.8699942 -0.81333739 -1.3685735 4285097567
4.8469105 -0.84008223 -1.3633587 4287465856
4.8303075 -0.86776525 -1.3600652 4285557865
4.9780421 -0.92588413 -1.4045281 4285954165
4.8589544 -0.93460679 -1.3715926 4285427823
4.8795362 -0.96965307 -1.3792776 4284112992
5.1965919 -1.0658697 -1.4734184 4281681737
5.1504412 -1.0893751 -1.4618909 4282011221
5.0262189 -1.0953541 -1.4275831 4282732626
4.9912558 -1.1198562 -1.4193492 4280823338
4.850307 -1.1195245 -1.380101 4281479728
5.0023985 -1.1870185 -1.4267596 4281413935
4.9782052 -1.2135897 -1.4218193 4281349432
4.9566731 -1.2406093 -1.4177024 4281942860
4.894949 -1.257122 -1.4017836 4282207578
4.860177 -1.2800288 -1.3938241 4282275165
4.8104553 -1.2985457 -1.3814733 4281947993
4.7718129 -1.3195776 -1.372416 4282866530
4.6859093 -1.3268197 -1.3493612 4282601042
4.4236965 -1.2819231 -1.2738839 4294638843
4.4009967 -1.3046681 -1.2694925 4294901500
4.3827863 -1.328578 -1.2664734 4294639357
4.3855734 -1.3588613 -1.2697669 4294835450
4.3817368 -1.3871968 -1.2711393 4294769914
4.3813767 -1.4167199 -1.2736094 4284504133
4.378993 -1.4456875 -1.2755307 4287003487
4.3627505 -1.4700723 -1.273335 4285687374
4.3600135 -1.4990029 -1.2752563 4285951575
4.377048 -1.5349576 -1.2832156 4286741604
4.4209671 -1.5808932 -1.2994089 4287662955
4.4157009 -1.6096371 -1.3007812 4287465052
4.4111495 -1.6387106 -1.302428 4288320100
4.4441781 -1.6820884 -1.3156022 4289108083
4.4867086 -1.7297382 -1.3317956 4287594067
4.4769058 -1.7575871 -1.33207 4288054114
4.4740729 -1.7882364 -1.3345401 4287266919
4.466579 -1.8171051 -1.335638 4294047725
4.0493803 1.6206808 -1.256911 4283126622
2.6428747 1.0385487 -0.80403489 4294310394
2.6465154 1.0212764 -0.80317932 4293717228
2.6634855 1.0090978 -0.80660152 4293452241
4.0008054 1.4883753 -1.229248 4286211148
4.0242667 1.4690615 -1.233811 4284369457
3.9781671 1.4246145 -1.2164146 4283910193
3.1947238 1.1217421 -0.96659124 4286015310
3.9527595 1.3610111 -1.2030108 4287128893
3.9574039 1.335505 -1.2018701 4285419853
3.5606041 1.1771852 -1.074962 4294967288
3.9744065 1.2871366 -1.2021552 4287659598
4.0215125 1.2751943 -1.2144183 4290615657
4.271821 1.3258479 -1.2899927 4290090626
4.3486547 1.3205162 -1.3113817 4293579964
4.3125758 1.2806998 -1.2976928 4280619795
4.2715716 1.2400392 -1.2825779 4293579699
4.3611603 1.2371063 -1.3079594 4294625948
4.3834467 1.2144217 -1.3125224 4294888090
4.3991423 1.1897568 -1.3150891 4294952858
4.4109926 1.1639657 -1.3165151 4294166181
4.4403281 1.1426167 -1.3233596 4292786860
4.7568188 1.1930711 -1.4183266 4292201158
4.7770844 1.1670489 -1.4223193 4290034348
4.6946435 1.1164061 -1.3949413 4293454548
3.1308224 0.72385359 -0.91525763 4289050027
4.7192111 1.0612377 -1.3983636 4294704863
4.7275066 1.0326706 -1.398934 4294900696
4.7365661 1.0042409 -1.3997896 4294901721
4.7595372 0.9786377 -1.404923 4294769878
4.714695 0.93929023 -1.3895228 4294967023
4.710959 0.90852648 -1.3866709 4293719020
4.7334046 0.8827706 -1.3918043 4294176221
4.7085481 0.84826493 -1.3826784 4294176474
4.7278285 0.82182354 -1.3869561 4294639331
4.7252197 0.79153001 -1.3846747 4294704616
4.7280951 0.76221615 -1.3841043 4294967283
4.698586 0.72789991 -1.3738376 4285428074
4.6489267 0.69101048 -1.357582 4283719263
1.8937668 0.26891932 -0.52825946 4284838784
1.8630919 0.25289097 -0.51856315 4283654757
1.8997756 0.24603069 -0.52911502 4284510068
1.9002982 0.23425139 -0.52882987 4284771187
1.9188341 0.22460312 -0.5339632 4284439137
1.9220811 0.21303746 -0.53453356 4284900714
1.9176329 0.20063789 -0.53282243 4285688170
1.8997518 0.1869784 -0.52711874 4286478183
1.9228138 0.1773563 -0.533678 4287333753
1.9238658 0.16555479 -0.533678 4285755497
1.9210238 0.15343951 -0.53253728 4285822311
1.9209734 0.14157841 -0.53225207 4286151533
1.9131997 0.12920238 -0.52968538 4285559909
1.917783 0.11769795 -0.53082615 4285164381
1.9175119 0.10587502 -0.53054094 4285295198
1.9056808 0.093489215 -0.52683353 4286478183
1.8947277 0.081294291 -0.52341127 4283121976
1.8587943 0.068306483 -0.5125742 4281344537
1.8438504 0.056421079 -0.50801122 4285553480
1.8432038 0.045082316 -0.50772601 4287328852
1.758157 0.032155097 -0.48234448 4287723360
1.7238191 0.020924395 -0.47207776 4280949787
1.7114551 0.010263597 -0.46837035 4281412399
1.7047766 -0.00024154742 -0.46637401 4281873200
1.7037846 -0.010696497 -0.46608886 4282859065
1.7008116 -0.021116802 -0.4652333 4282990136
1.7131082 -0.031774946 -0.46894071 4283318585
1.7042572 -0.042078786 -0.46637401 4282332206
1.8467144 -0.056838006 -0.50886679 4282464307
1.8846445 -0.069558412 -0.52027422 4283583817
1.8793942 -0.080917895 -0.5188483 4283385922
1.8807771 -0.092541143 -0.51941872 4286213997
1.883045 -0.10423677 -0.52027422 4283976265
1.8833265 -0.1158472 -0.52055943 4285489756
1.884493 -0.12752913 -0.52112979 4285094995
1.8855869 -0.13922974 -0.5217002 4288252802
1.8827862 -0.15064517 -0.52112979 4283251762
1.8913761 -0.16301203 -0.52398169 4284435777
1.8951126 -0.17505209 -0.52540761 4283713083
1.881602 -0.18546245 -0.5217002 4282331943
1.8737555 -0.19630928 -0.51970387 4282793775
1.8512127 -0.21695802 -0.51371497 4282531379
5.1186085 -0.62966627 -1.4936159 4284769889
5.1745362 -0.66878814 -1.5115827 4283915352
5.1741347 -0.70103979 -1.5127234 4280624680
5.2086453 -0.73828077 -1.5244161 4282599500
5.2504773 -0.7770924 -1.5383902 4283784803
4.8212214 -0.74391514 -1.4106266 4280755494
4.8960624 -0.78623021 -1.4345824 4282860352
4.8675103 -0.81231838 -1.4274527 4282333232
4.8444896 -0.83906591 -1.4220341 4284174661
4.882648 -0.8765558 -1.4351526 4282595639
4.9535098 -0.92066759 -1.4582528 4282338121
5.1906185 -0.99766588 -1.5318309 4281483079
5.0386753 -1.0005924 -1.487627 4283719272
5.0446482 -1.0339895 -1.4913344 4282340958
5.0091367 -1.0587853 -1.4824936 4281682776
5.0109749 -1.0913347 -1.4850603 4281418316
4.9985723 -1.1208038 -1.4833492 4281548356
4.9551754 -1.1430597 -1.472227 4281743931
4.7773924 -1.133008 -1.4200377 4281414196
4.9426379 -1.2042345 -1.4727973 4281218363
4.9109788 -1.2284974 -1.4653825 4281745998
4.8671398 -1.2493222 -1.4542602 4282010199
4.8213773 -1.2691681 -1.4425676 4282011221
4.7774072 -1.2889987 -1.4314452 4282209118
4.7139745 -1.3029801 -1.4143341 4282736494
4.677299 -1.3237952 -1.4054933 4282932841
4.3652606 -1.2645408 -1.3113817 4280957248
4.309629 -1.2771528 -1.2965521 4293981681
4.2907028 -1.3002393 -1.2931298 4294901751
4.2762351 -1.3245586 -1.2911335 4294835961
4.27808 -1.3539507 -1.2942705 4294901754
4.2870212 -1.385772 -1.2996891 4294572275
4.2720656 -1.4099494 -1.2976928 4294901241
4.2597003 -1.4349129 -1.2965521 4292598486
4.2508159 -1.4610229 -1.2965521 4294901502
4.2282023 -1.4823248 -1.2922742 4294835961
4.3408809 -1.5517658 -1.3307744 4294835699
4.412334 -1.6078862 -1.3564411 4287531382
4.4059796 -1.6362634 -1.357582 4288123506
4.4128909 -1.6697074 -1.3630005 4289568893
4.460701 -1.7191429 -1.3815376 4287067987
4.4750533 -1.7562795 -1.3895228 4287725152
4.4926767 -1.7950779 -1.3986489 4292265654
4.0146317 1.6350552 -1.3040848 4286615442
2.6093333 1.04424 -0.83107042 4286218893
2.6192472 1.0296068 -0.8322559 4294967293
2.6299708 1.0152352 -0.83373779 4292794319
4.0526557 1.5357004 -1.3037884 4281934603
2.6646111 0.99120647 -0.84114718 4288909689
4.0218487 1.4678476 -1.2874879 4285097557
3.1702385 1.1351297 -1.003857 4283120418
3.9692678 1.3937091 -1.2643706 4286275653
3.9497492 1.3596933 -1.255183 4289500057
3.4159353 1.15259 -1.0776544 4294965226
4.0259886 1.3309008 -1.2747437 4286672701
4.0622473 1.3152903 -1.2839314 4290284649
4.2122707 1.3353518 -1.3301659 4289035885
4.2723799 1.3256085 -1.3470591 4293508763
4.2639828 1.2943765 -1.3417244 4294895296
4.2141619 1.2510699 -1.3230528 4282463276
4.211669 1.2222617 -1.3197927 4291674012
4.2861667 1.2154108 -1.341428 4294298012
4.3027482 1.1916368 -1.3443918 4294559125
4.3053689 1.1639673 -1.3429099 4293179798
4.316124 1.1385022 -1.3440955 4294104001
4.641222 1.1938161 -1.4460484 4291743690
4.6327105 1.1613688 -1.44101 4289184192
3.0624366 0.74791241 -0.93717265 4288982426
4.6958613 1.1161321 -1.4567178 4280563238
4.6430669 1.0735333 -1.4377499 4289113751
4.535882 1.0194819 -1.4015921 4292926138
4.5019283 0.98287457 -1.3888481 4294964433
4.5097427 0.95562863 -1.3894408 4294832336
4.5361032 0.93216717 -1.395961 4294833882
4.5988765 0.91568863 -1.41404 4287930514
4.6137862 0.88926005 -1.4170036 4289248185
4.6407514 0.86495674 -1.4238203 4289181359
4.6281118 0.83325142 -1.4181892 4288061849
4.6077304 0.80042678 -1.410187 4293258718
4.6021934 0.77040559 -1.4069269 4294506985
4.6058912 0.7420007 -1.4066305 4291676605
4.620739 0.71533185 -1.4098907 4294900714
4.6269307 0.68724662 -1.4104834 4294966248
4.6301155 0.65870887 -1.410187 4287597673
4.6454263 0.63183033 -1.4137435 4288587409
5.1227856 0.6647287 -1.561931 4282796881
4.9116001 0.6067211 -1.4946539 4278847748
4.7985554 0.5628956 -1.4581997 4290688943
4.7297769 0.52543318 -1.4356753 4282726450
4.7243629 0.49550599 -1.433008 4281936680
4.6883454 0.46266615 -1.4208566 4280293398
4.6768308 0.43257204 -1.4164109 4280098077
4.6660752 0.40271875 -1.4122616 4279900959
4.6617942 0.37354723 -1.410187 4279769625
4.6535215 0.34416199 -1.4069269 4279638037
4.6965199 0.31837627 -1.4196711 4279638805
4.6859927 0.28879026 -1.4158182 4282204734
4.7162843 0.26161674 -1.4247094 4279965980
4.9610496 0.24464984 -1.500285 4282406246
4.9643655 0.21428704 -1.5008777 4292077532
1.8618109 0.069164358 -0.53706652 4282274144
1.8488356 0.057327598 -0.53291726 4284700491
1.8224188 0.045323078 -0.5246188 4285684540
1.7787367 0.033326611 -0.51098555 4285419576
1.7254279 0.021749698 -0.49438855 4280224514
1.7073828 0.011048937 -0.48875746 4281674799
1.7083735 0.00057252962 -0.48905382 4281741362
1.7045248 -0.0098868404 -0.48786834 4282332981
1.7063419 -0.020368652 -0.48846105 4282859065
1.7033201 -0.03078576 -0.48757192 4282858552
1.7202853 -0.041656576 -0.49290672 4282923065
4.956111 -0.18161659 -1.497914 4283127126
4.9615831 -0.21230963 -1.4999887 4287729814
4.9449239 -0.24200119 -1.4952466 4286480257
4.9271345 -0.27144372 -1.4902083 4278917655
4.9282355 -0.3018463 -1.4910973 4281747011
1.8369759 -0.12358724 -0.53024989 4282599765
4.9213033 -0.36209017 -1.4902083 4280694323
4.9037561 -0.39106393 -1.4854662 4279444256
4.8965063 -0.42073625 -1.4839844 4279311641
4.9537482 -0.45629632 -1.502656 4284573030
4.9356475 -0.48518717 -1.497914 4282400319
4.8917322 -0.51119101 -1.4851699 4287007369
4.8904018 -0.54140681 -1.4857626 4284967272
4.8926792 -0.57206947 -1.4875408 4284505695
5.0284185 -0.61925036 -1.531108 4282072126
5.0358906 -0.65156394 -1.5346645 4281807668
5.0772247 -0.68861598 -1.5488905 4281479982
5.0445361 -0.71572924 -1.5399992 4282468167
4.9975357 -0.74036682 -1.5266623 4283324256
4.9249401 -0.7605176 -1.5053234 4287668648
4.9286675 -0.7920866 -1.5079907 4282205765
4.8945127 -0.81743407 -1.4988031 4282534730
4.870584 -0.8441872 -1.4928757 4282601560
4.8803525 -0.87675989 -1.4976176 4282666332
4.8730035 -0.90633923 -1.4970249 4282666837
4.9949002 -0.96076649 -1.5373318 4281878089
4.9973412 -0.99307257 -1.5399992 4281878346
5.013608 -1.0283242 -1.5471122 4282140493
5.0109415 -1.0598587 -1.5482978 4282073674
5.0146089 -1.0928229 -1.5515579 4282073158
5.015264 -1.1252447 -1.5539289 4282335817
4.9933758 -1.1525588 -1.5491868 4281612094
4.9490395 -1.1743528 -1.5373318 4281414968
4.7311115 -1.1533333 -1.4700547 4281415226
4.8703294 -1.2189913 -1.5168821 4281876808
4.8294563 -1.240297 -1.5062125 4281615176
4.7801952 -1.2589575 -1.4928757 4281746762
4.7364202 -1.2785543 -1.481317 4282273631
4.6677332 -1.2907867 -1.4617562 4282340968
4.6174545 -1.3074307 -1.448123 4282143589
4.568984 -1.3240384 -1.4350826 4283064429
4.3968706 -1.3034445 -1.3820314 4282600783
4.2160487 -1.2780185 -1.3260165 4294573050
4.1971803 -1.3004707 -1.3224601 4294835961
4.1909428 -1.3267764 -1.3230528 4294639611
4.1945362 -1.3562875 -1.3269057 4294704634
4.1788802 -1.3796033 -1.3245347 4294572537
4.1730514 -1.4061335 -1.3254238 4294966782
4.1598287 -1.4301594 -1.3239419 4294835196
4.1545806 -1.4569212 -1.3251275 4294901503
4.1509585 -1.4843158 -1.3269057 4294770429
4.1624103 -1.5172826 -1.3337224 4294639609
4.4099622 -1.6382695 -1.4187819 4294638069
4.4828949 -1.696746 -1.4463447 4287397743
4.5026975 -1.735904 -1.4564215 4287198544
4.4955173 -1.7648957 -1.457607 4287922267
4.4916978 -1.7952827 -1.459978 4287726438
4.4920983 -1.8274891 -1.4638309 4291480507
4.0584259 1.6823807 -1.374357 4292664550
4.0008059 1.6297795 -1.3507417 4294505966
2.5457761 1.0184258 -0.84224594 4294375669
2.5502057 1.0020891 -0.8416326 4288976757
4.0230241 1.5531172 -1.3482882 4286672226
3.9612837 1.5013968 -1.3237528 4284569671
2.6511738 0.98586506 -0.87015498 4287794043
3.9347098 1.4363407 -1.3084182 4283319859
3.182749 1.13952 -1.0480365 4286474069
3.9466517 1.3860539 -1.306578 4286542707
3.2549846 1.1205351 -1.0679715 4294768625
4.1031351 1.3847305 -1.3541152 4285161770
4.1242051 1.3637149 -1.358409 4292003729
4.1478872 1.3433732 -1.3636228 4294960068
4.176918 1.3245198 -1.3706766 4293574808
4.1822395 1.2980187 -1.3697566 4294961596
4.174644 1.267627 -1.3645428 4293910208
4.1394625 1.2292416 -1.3501283 4280885784
4.184401 1.2147087 -1.3627027 4289369990
4.2027631 1.1921306 -1.366383 4291867052
4.2164192 1.1681008 -1.3685298 4294303197
4.2290196 1.1436999 -1.37037 4289045149
2.9844253 0.78713351 -0.95326853 4294960602
4.5994406 1.1836042 -1.4890599 4288597963
4.6740074 1.1722798 -1.5114484 4290769643
4.7070003 1.1499095 -1.5200357 4283332714
4.6898928 1.115275 -1.5120618 4278395157
4.6363759 1.0725193 -1.4921268 4287009412
4.5110126 1.0143658 -1.4485765 4294308050
4.4641509 0.97507685 -1.431095 4294372806
4.4737744 0.94845748 -1.4323218 4291477142
4.4944263 0.92405981 -1.4372289 4291542163
4.5242801 0.90130639 -1.4452029 4290885773
4.52038 0.87172419 -1.4421359 4289766005
4.501317 0.83942831 -1.434162 4290030199
4.467042 0.80469561 -1.4212809 4290689425
4.466269 0.77629179 -1.4194407 4290424972
4.4643774 0.74777031 -1.4172939 4291476893
4.4707613 0.72066677 -1.4179072 4289174914
4.4873257 0.69511849 -1.4218943 4287335020
4.5018625 0.66911352 -1.4252679 4289109121
4.5077677 0.64174682 -1.4258813 4291807657
4.9973063 0.68030947 -1.5838277 4279179018
5.0249834 0.6527043 -1.591495 4280954677
4.9712734 0.6147207 -1.5727868 4290887870
4.8983836 0.57519644 -1.5479448 4278716163
4.7258735 0.52552038 -1.4909 4280098069
1.8807468 0.19675592 -0.56806314 4286805614
4.6334605 0.45773074 -1.459004 4280032282
4.6485028 0.43043572 -1.462991 4280098077
4.6984692 0.40601394 -1.4783256 4280097818
4.7596931 0.38191134 -1.4973406 4280097564
4.8359842 0.35820112 -1.5212625 4280032286
4.7896614 0.32522106 -1.5056213 4279966493
4.6652184 0.28799456 -1.4648312 4279966750
4.7125139 0.2619105 -1.4795524 4278849827
4.8423676 0.23936503 -1.5209559 4281092182
4.8361382 0.20931721 -1.5185024 4282272847
1.7765484 0.065232262 -0.53156674 4282671471
1.8140177 0.055489242 -0.54352772 4284834383
1.808615 0.044214327 -0.54168761 4286673240
1.748899 0.031979606 -0.52236605 4287857003
1.7205105 0.020881984 -0.51316524 4279568132
1.7177508 0.01030566 -0.51224518 4281478192
1.7187333 -0.00023393525 -0.5125519 4281807153
1.7025191 -0.010689423 -0.50733805 4282727739
1.6976628 -0.021079877 -0.50580466 4283253823
1.6955982 -0.03146214 -0.50519121 4283384896
1.7001309 -0.041979741 -0.50672472 4282727738
4.8298302 -0.17642751 -1.5160488 4283849566
4.8495774 -0.20694719 -1.522796 4293259506
4.8463149 -0.23660739 -1.5221826 4293458168
4.8381195 -0.26597527 -1.5200357 4293656061
4.8278461 -0.29513574 -1.5172756 4293984255
4.7936554 -0.32258832 -1.506848 4293655546
1.8317685 -0.13528937 -0.55058169 4284375936
4.8737807 -0.38809344 -1.5341437 4293591035
4.8646693 -0.4174231 -1.5319967 4293852664
4.8136773 -0.44282919 -1.5163555 4292995817
4.8203425 -0.47328481 -1.5194224 4286482567
4.8296547 -0.5041346 -1.5234094 4294112499
4.8264704 -0.5337593 -1.5234094 4293917430
4.8051419 -0.56127012 -1.5175823 4292869103
4.8138885 -0.5922513 -1.5215693 4290233018
4.8696351 -0.6294505 -1.5408908 4294573046
4.9788671 -0.67462784 -1.5776939 4280099104
4.9774613 -0.70556504 -1.578614 4283192666
4.9645643 -0.73484057 -1.5758538 4281614663
4.7878118 -0.73876822 -1.5197291 4286615182
4.8771691 -0.7832008 -1.5503983 4281943365
4.876966 -0.81389409 -1.5519317 4282206800
4.8681288 -0.84315437 -1.550705 4282470236
4.8581791 -0.87216896 -1.5491716 4282404441
4.8583512 -0.90300399 -1.5510117 4282405209
4.8330894 -0.92902887 -1.5445712 4284706159
4.5817556 -0.9099645 -1.4639111 4282072643
4.5863433 -0.94016045 -1.4672847 4280362280
4.5842128 -0.96907049 -1.4685115 4294111988
4.5763206 -0.99677581 -1.4678981 4294637819
4.5766201 -1.026293 -1.470045 4294506746
4.5897141 -1.0588437 -1.4764855 4294244085
4.9100695 -1.1644403 -1.5847478 4284769891
4.8630657 -1.1848668 -1.57156 4281546552
4.8243079 -1.2068377 -1.5611326 4281809984
4.7762451 -1.2260135 -1.5476381 4281482561
4.7456198 -1.2492448 -1.5399708 4281812045
4.702024 -1.2686785 -1.5280098 4281944921
4.6335979 -1.2807841 -1.5077682 4282339939
4.5816889 -1.2967601 -1.4930469 4282340966
4.5187883 -1.3089724 -1.4746454 4282473835
4.4842048 -1.3288386 -1.4657513 4282013533
4.1607699 -1.2609017 -1.3596357 4280365358
4.1311321 -1.2796547 -1.3522751 4293718507
4.1204805 -1.3041179 -1.3513551 4294901753
4.1015315 -1.325866 -1.3476747 4294835709
4.0906072 -1.3501135 -1.3467547 4294836222
4.0759315 -1.3730621 -1.3446078 4294836220
4.0701303 -1.3989732 -1.3455279 4294901500
4.0659614 -1.4254941 -1.3470614 4294901502
4.0616198 -1.4520164 -1.3485949 4294901500
4.057106 -1.478539 -1.3501283 4294835960
4.0702662 -1.5116835 -1.3577956 4294638330
4.4241562 -1.6739669 -1.482926 4294900471
4.4395599 -1.7110013 -1.4918201 4288319369
4.4644217 -1.7521102 -1.5040878 4287264864
4.4694982 -1.7858232 -1.5096083 4287923298
4.4822645 -1.8228897 -1.5178889 4286676338
2.6935389 -1.1346542 -0.90051746 4294246134
2.6760259 -1.1466657 -0.89683723 4287205251
2.674176 -1.1653433 -0.89867735 4286087285
2.4789183 0.99157035 -0.85340714 4287595371
4.008213 1.5745745 -1.401932 4284106537
3.9691434 1.531186 -1.3844529 4285160000
3.9571826 1.4987452 -1.3768257 4285164638
2.6944797 1.0017803 -0.9220522 4285557591
3.1495268 1.1489468 -1.082224 4283055929
3.9385688 1.4093648 -1.3606178 4294571759
3.2099133 1.1265327 -1.0987496 4294111200
4.003087 1.3772708 -1.3774613 4282326790
4.0599809 1.369038 -1.3946226 4282460950
4.0728064 1.3455874 -1.3962115 4294231734
4.068356 1.3164862 -1.3917624 4292717195
4.0637026 1.2874904 -1.3873131 4293706913
4.0778656 1.2644969 -1.3895377 4291078539
4.0764742 1.2366999 -1.3863597 4293649091
4.0967121 1.2154385 -1.3908089 4292990646
4.1086459 1.1915987 -1.3923979 4291668620
2.9098732 0.8247239 -0.97226477 4294961634
4.1531157 1.1494328 -1.4028853 4290487429
4.2983098 1.1612575 -1.4508734 4288722091
4.5006456 1.1863208 -1.5185649 4287020731
4.5693684 1.1744927 -1.5398576 4287612094
4.6233964 1.1581799 -1.5560656 4289190098
4.6773944 1.1412479 -1.5722734 4281423955
4.7175198 1.1204112 -1.5837142 4281027400
4.7390866 1.0948576 -1.588799 4280168751
4.553288 1.0225606 -1.5226964 4292729798
4.4798069 0.97723079 -1.4953655 4292004258
4.4857192 0.94972485 -1.4953655 4292004517
4.497035 0.92332679 -1.4972724 4290622351
4.5044756 0.89608592 -1.4979079 4291081614
4.5098886 0.8684302 -1.4979079 4294763961
4.5002184 0.83796579 -1.4928231 4293776035
4.4875441 0.80714965 -1.4867849 4293120165
4.476531 0.77684468 -1.4813823 4292792741
4.4774728 0.74873739 -1.480111 4287727711
4.4791737 0.72079843 -1.4791577 4291873959
4.4910088 0.69445962 -1.4817001 4288125048
4.5308256 0.67217457 -1.4937766 4287664244
4.7479587 0.67462152 -1.5659174 4285168237
4.9042139 0.6661377 -1.6174011 4283526764
4.9119706 0.63652062 -1.6186724 4285495672
4.9223709 0.60718131 -1.6208969 4280492576
4.9288292 0.57729751 -1.6218504 4279900957
1.9270061 0.21396458 -0.60838246 4287530881
4.8676453 0.50966609 -1.5989687 4280164899
4.8555832 0.47830316 -1.5938839 4280032545
4.6771498 0.43178105 -1.532866 4279769888
4.7033281 0.40510666 -1.5408111 4279770403
4.7312441 0.37827817 -1.5493917 4280099886
4.7278028 0.34882253 -1.5474849 4280034351
4.7289081 0.31974286 -1.5471671 4280166966
4.7279415 0.29054654 -1.5462137 4280037698
4.7409959 0.26215824 -1.5500273 4286422701
4.7320981 0.23255202 -1.5465314 4293000953
4.743856 0.20395918 -1.5500273 4281546552
1.8304554 0.067688905 -0.5724709 4284051049
1.8298887 0.05642714 -0.57215309 4284571211
1.8956037 0.046799365 -0.5940814 4286805867
1.7223716 0.031984832 -0.53592378 4286608474
1.7433932 0.021670569 -0.5429154 4279635206
1.6970346 0.01069087 -0.52734315 4281478192
1.6932756 0.00027810823 -0.52607197 4281741871
1.6913493 -0.010099881 -0.52543634 4282661945
1.6903071 -0.020465916 -0.52511853 4283056190
1.6901498 -0.030837063 -0.52511853 4283121726
1.6889811 -0.041183714 -0.52480072 4282726198
4.7308111 -0.17416696 -1.5452603 4293260529
4.7258644 -0.20302829 -1.5439891 4292935414
4.7084303 -0.23122989 -1.5385865 4293197557
4.7192302 -0.26079705 -1.5427179 4293656314
4.7147021 -0.28957418 -1.5417645 4293852923
4.7497306 -0.32099396 -1.5541587 4293983998
4.7259231 -0.34852606 -1.5468493 4294115068
1.8098364 -0.14440122 -0.56706828 4291613140
4.7064333 -0.43432209 -1.5427179 4293918459
4.709341 -0.46375006 -1.5446247 4293654515
4.6950912 -0.49145186 -1.5408111 4286020474
4.6948147 -0.52056485 -1.5417645 4292994532
4.6990657 -0.55024469 -1.5443069 4293391345
4.6824265 -0.57744151 -1.5398576 4293326579
4.771884 -0.61822933 -1.5713199 4281876796
4.7980657 -0.65158272 -1.5814897 4293718506
4.834342 -0.68674821 -1.5951551 4283848787
4.8159695 -0.71431047 -1.5903881 4286218115
4.8171177 -0.74471688 -1.5922948 4281217587
4.8068404 -0.77335608 -1.5903881 4280822829
4.8244495 -0.8065899 -1.5980153 4282402372
4.8306193 -0.8381229 -1.6018289 4282468935
4.825386 -0.86774725 -1.6018289 4282600519
4.728622 -0.88032496 -1.5706844 4283321932
4.5359917 -0.87327784 -1.5068064 4289240994
4.5333376 -0.90164882 -1.5077598 4289767856
4.5295777 -0.92982936 -1.5083953 4287136649
4.5080175 -0.95426542 -1.5029927 4285625718
4.4891086 -0.97907841 -1.4985435 4284835937
4.4950433 -1.0093061 -1.5026749 4291414211
4.520175 -1.0441263 -1.5134802 4294308336
4.609622 -1.0946324 -1.5465314 4283847247
4.7723055 -1.1642585 -1.6050069 4281940279
4.7871447 -1.1990495 -1.6126342 4281808954
4.6740942 -1.2012508 -1.576087 4282270535
4.7133937 -1.2422352 -1.5922948 4282008396
4.673646 -1.262476 -1.5811719 4281878613
4.6338286 -1.282276 -1.5700488 4282010459
4.5592809 -1.2918105 -1.5468493 4282012003
4.5002742 -1.3049697 -1.5290524 4282341484
4.2849336 -1.2710614 -1.4565938 4283197558
4.2289667 -1.2827387 -1.4397503 4283130474
4.180264 -1.2960244 -1.4254493 4283456091
4.0185761 -1.2729603 -1.371423 4289375917
3.9962559 -1.2929227 -1.3663383 4294310394
3.9945495 -1.3195013 -1.3685628 4294639611
3.9917686 -1.3458045 -1.3704697 4294639611
3.9798498 -1.3690381 -1.3691984 4294574075
3.9767423 -1.3953164 -1.3711052 4294639357
3.9752476 -1.4222467 -1.3736477 4294705150
3.9887142 -1.4547355 -1.3815926 4294901502
3.9708261 -1.4758782 -1.3784146 4294769918
3.9749956 -1.505253 -1.3831817 4294704123
4.4522157 -1.717327 -1.5579723 4294506492
4.487484 -1.7626423 -1.5744981 4292991963
4.4889092 -1.7950735 -1.5789472 4286346345
4.4514651 -1.8118575 -1.5694132 4294967285
2.7102959 -1.1419616 -0.94429827 4290825670
2.6823232 -1.149603 -0.93667108 4291152580
2.6899943 -1.1724823 -0.9420737 4287664260
2.4442096 1.0303391 -0.87944996 4293257716
2.4243088 1.004463 -0.8696087 4294966255
4.0128717 1.6346982 -1.4630374 4284961582
3.9938872 1.5984536 -1.452212 4282592536
4.0062566 1.5749551 -1.4531962 4282856745
3.9559252 1.5271922 -1.4308892 4283975488
3.9192924 1.4854679 -1.413831 4287398531
2.6729925 0.99398887 -0.94866693 4288582042
2.7801929 1.0145258 -0.98606372 4286277488
3.0851595 1.104542 -1.0962861 4294571248
3.9804122 1.3979211 -1.4233443 4294567648
3.9871287 1.3728559 -1.4226882 4291739061
3.9927921 1.3474585 -1.4217041 4293910980
4.0018821 1.3232306 -1.4220321 4294961098
4.0081286 1.2980682 -1.421376 4290417791
4.0151176 1.2731644 -1.421048 4290221699
3.9849644 1.2367334 -1.4072702 4282064650
2.8427975 0.86282247 -0.99000025 4294965974
4.0025573 1.1885462 -1.4082544 4291075983
4.005239 1.1626467 -1.4066141 4294892228
4.0613694 1.1519827 -1.4243284 4293383851
4.2695389 1.1828325 -1.4968258 4281215527
4.2584801 1.1516755 -1.4902649 4291089619
4.298346 1.1342098 -1.5020745 4278392606
4.5513053 1.1712044 -1.5903178 4280631379
4.5886416 1.1508473 -1.6011432 4289053386
4.6286511 1.130749 -1.6129528 4280435514
4.6842084 1.1139218 -1.630339 4282342747
4.7093606 1.0894215 -1.6368998 4279906100
4.5491476 1.0229512 -1.5775242 4294376171
4.4685907 0.97604775 -1.5466882 4291215769
4.4735713 0.9484145 -1.5463601 4289504384
4.4783816 0.92075682 -1.5460322 4290359957
4.4876523 0.89399987 -1.5473443 4290162060
4.4735751 0.86268598 -1.5404555 4294569413
4.4611406 0.83192545 -1.5342226 4293253291
4.441061 0.80000842 -1.5253655 4292266399
4.4542623 0.77420157 -1.5283178 4285029428
4.4654503 0.74795026 -1.5306141 4293320378
4.472753 0.72098839 -1.5315983 4289373833
4.5209665 0.7003386 -1.5470163 4287138420
4.567225 0.67884564 -1.5617782 4280627495
4.7994933 0.68335479 -1.6418205 4284051308
4.8064036 0.65427566 -1.6428046 4282539352
4.7981501 0.62318718 -1.6385401 4289377461
4.8103209 0.59477991 -1.6414925 4282602323
4.7463298 0.5573048 -1.6178734 4281223492
4.6642251 0.51864952 -1.5880215 4280365358
4.75563 0.49931464 -1.6188575 4280958014
4.6965604 0.46398026 -1.5972067 4280697422
4.6127815 0.42711908 -1.5670269 4280566613
4.6200218 0.39921534 -1.5686671 4280698201
4.6214423 0.37078413 -1.568339 4280699229
4.6302247 0.34291056 -1.5706353 4280896869
4.6162195 0.31340173 -1.5650586 4281686896
4.6369128 0.28624007 -1.5716194 4287871428
4.6338658 0.25751984 -1.5699792 4292145906
4.6268673 0.22866033 -1.5670269 4291951089
4.6329021 0.20047149 -1.5686671 4288526000
1.7963696 0.065973155 -0.58257163 4292667351
1.8203456 0.055686899 -0.59077269 4284371262
1.7960995 0.043900263 -0.58224356 4286278491
1.74061 0.031822488 -0.5628891 4287726440
1.7341604 0.02105695 -0.56059277 4279240960
1.6870248 0.010100367 -0.54419065 4281084713
1.7050036 -0.00024142372 -0.55042344 4282071087
1.6889111 -0.010613346 -0.54484671 4282859576
1.6803128 -0.020876413 -0.54189438 4283121722
1.678264 -0.031152479 -0.54123825 4283056442
1.6837076 -0.041585535 -0.54320651 4282662967
4.6284804 -0.16912135 -1.5666988 4291089871
4.620749 -0.19723766 -1.5644025 4291685347
4.5930324 -0.22430287 -1.5552174 4291421403
4.6003065 -0.28128111 -1.5588259 4293262067
4.5900111 -0.30893394 -1.5558734 4293525241
4.5946236 -0.33757481 -1.5581697 4293656314
4.6028247 -0.36658287 -1.5617782 4293918716
4.5694284 -0.39216068 -1.5509528 4294115068
4.5330701 -0.41708362 -1.5391432 4294115068
4.5840149 -0.45013878 -1.5578417 4293984252
4.5943208 -0.47962713 -1.5624343 4293589753
4.5772071 -0.50625414 -1.5575136 4289244846
4.5843358 -0.53553295 -1.5611221 4286217085
4.6006541 -0.56606942 -1.5680109 4294112245
4.6102104 -0.59598011 -1.5726036 4293652197
4.6532736 -0.63058776 -1.5890057 4290228645
