# .PCD v0.7 - Point Cloud Data file format
VERSION 0.7
FIELDS x y z rgb
SIZE 4 4 4 4
TYPE F F F U
COUNT 1 1 1 1
WIDTH 1109
HEIGHT 1
VIEWPOINT 0 0 0 1 0 0 0
POINTS 1109
DATA ascii
21.667871 -7.1462264 1.1473038 4294442743
21.368971 -7.1933379 1.1342101 4294508282
21.156281 -7.2665749 1.1255459 4294967295
21.114124 -7.3972416 1.1256919 4294704121
21.121012 -7.5454707 1.1284177 4294768887
21.100595 -7.6844935 1.1297807 4294113267
21.014652 -7.799572 1.127785 4289313458
20.848682 -7.8838615 1.1216519 4294049012
20.335737 -7.8328762 1.0974115 4294177777
20.66017 -8.1037397 1.1169304 4293454056
20.941212 -8.3625784 1.1343075 4283849816
21.137491 -8.5916967 1.1473525 4283391059
21.538488 -8.9090414 1.1713008 4283390807
32.035034 -13.712898 1.7335995 4285494382
31.874279 -13.876114 1.7295594 4285165419
31.566593 -13.973194 1.7177314 4285559409
31.460222 -14.157602 1.7166605 4285756534
31.305546 -14.319631 1.7130585 4285428341
31.2026 -14.504713 1.7122797 4285954942
31.09766 -14.688643 1.7114521 4284837232
31.120413 -14.933621 1.7175853 4285297782
31.012932 -15.116852 1.7167578 4285165676
30.905272 -15.299769 1.715979 4285493614
20.146509 -10.128442 1.1343075 4288520608
20.010139 -10.214181 1.1302674 4288258201
19.940882 -10.333552 1.1299267 4286349690
30.01763 -16.501535 1.7047349 4285757566
29.923662 -16.689789 1.705173 4286614155
29.810261 -16.86718 1.7045889 4286021505
29.697542 -17.044802 1.7041022 4283784797
29.572544 -17.215145 1.7029827 4282600782
29.421633 -17.369871 1.7004515 4284179815
29.295643 -17.538786 1.6993806 4284508780
17.86968 7.7929883 0.74704653 4292531376
17.984209 7.7119446 0.74970883 4294702806
18.102095 7.631341 0.75251693 4292071868
18.213205 7.5469027 0.75506979 4294638823
18.637718 7.5891414 0.76998574 4293915107
18.734968 7.4950533 0.77199155 4283914059
18.890358 7.4230824 0.77629495 4284769881
19.002676 7.3329363 0.77892071 4284507222
19.112728 7.2409825 0.78147358 4284440916
19.22143 7.1476045 0.78398997 4284375122
19.29966 7.0422029 0.7853393 4284374865
19.237129 6.885932 0.78125477 4284374095
19.148893 6.7220888 0.77622199 4285162321
19.228521 6.6178002 0.77771723 4285360982
19.330315 6.520452 0.78008771 4285623385
19.457254 6.4305696 0.78344291 4285294420
19.59903 6.3442979 0.78738159 4285754971
19.702368 6.244451 0.7898615 4286083161
19.79949 6.1417975 0.7921226 4286083161
19.998411 6.0692377 0.7982859 4286017883
20.165567 5.9850836 0.80324572 4285953119
20.277735 5.883234 0.80612683 4285756516
20.391329 5.7807775 0.80908084 4286149215
20.534283 5.6854134 0.81316537 4287066208
20.628593 5.5754757 0.81542647 4285553998
19.24098 5.0739827 0.76178014 4292596678
19.271753 4.9558268 0.76178014 4286018918
21.161999 5.3036566 0.8317647 4282005545
21.267925 5.1917186 0.83453637 4289176207
21.379107 5.0800662 0.83752686 4287268461
21.531582 4.9769211 0.84208554 4284506449
21.710897 4.8782287 0.84766531 4289440675
21.882969 4.7760301 0.85298985 4294571757
22.014513 4.6634121 0.85681915 4294374119
22.17584 4.5555925 0.86177897 4294966241
22.334711 4.4455776 0.86666584 4286478432
22.51367 4.3377533 0.87231857 4285754970
22.608633 4.2123413 0.87487143 4291676077
22.750111 4.0944238 0.87917483 4290623383
22.764957 3.9530451 0.87881011 4291215520
22.730635 3.8035579 0.87665844 4292267440
22.74861 3.6632192 0.87647605 4294504919
22.781523 3.5252483 0.87687725 4290161306
3.9065108 0.58030206 0.17973022 4287202684
3.9337432 0.55969739 0.18060547 4293254868
22.06126 2.999119 0.84810299 4294171323
23.607426 3.0618761 0.9043386 4292333997
23.700151 2.9261489 0.9070738 4286545504
3.7954283 0.44530481 0.17506215 4289768617
3.6957858 0.41065159 0.17130581 4284045908
3.3265207 0.34901085 0.1576663 4290626235
2.9066427 0.26898962 0.14213037 4283585617
2.8923082 0.24977614 0.14154688 4292203961
25.050119 2.0055594 0.95269692 4294110929
2.2652924 0.16773367 0.11849827 4284241997
2.3101492 0.1568013 0.12010292 4284572510
2.1564634 0.13310827 0.11445018 4292138699
1.8788519 0.10445436 0.10427525 4281344284
1.8375361 0.090859935 0.10274354 4282988333
1.8130988 0.078507856 0.1018318 4282398250
1.7955707 0.066717356 0.10117536 4283385920
1.7959462 0.055698685 0.10117536 4291938497
1.7353134 0.04317525 0.098950729 4288909709
1.700575 0.031879134 0.09767431 4281606686
1.6827518 0.021221301 0.097017854 4281147932
1.6708585 0.01082084 0.096580222 4281804837
1.6648974 0.00056778715 0.096361414 4282197801
1.6648695 -0.0096478425 0.096361414 4282394151
1.6657783 -0.019875264 0.096397877 4284168504
1.6586308 -0.029967915 0.09614259 4285810747
1.6694052 -0.040413093 0.096543759 4287586893
1.6741201 -0.050808337 0.096726105 4287197792
28.588705 -1.0494752 1.07961 4293188815
28.531809 -1.2227325 1.0777866 4286344550
28.658516 -1.4043823 1.0827099 4293055420
28.693264 -1.5826234 1.0843145 4294964429
29.784208 -1.8261851 1.1245766 4294832850
29.998779 -2.024178 1.1328552 4294374095
30.357538 -2.2355897 1.1464581 4292268976
30.504629 -2.4347003 1.1523663 4292992440
30.559805 -2.627907 1.1549555 4284965193
30.461508 -2.8078465 1.151965 4294703083
30.60681 -3.0107481 1.157946 4278979335
30.794493 -3.2201121 1.1655316 4285490785
31.3274 -3.4702954 1.185845 4279502592
31.773014 -3.71715 1.2030221 4293976003
32.225689 -3.9707017 1.2205273 4291409547
32.4356 -4.1987681 1.2291706 4289502064
32.658772 -4.4315748 1.2383608 4294174403
33.001995 -4.6845531 1.2520368 4292662712
33.519287 -4.9679899 1.2722043 4294898392
33.444721 -5.1668525 1.2705997 4294174669
34.488838 -5.5450497 1.3103876 4293648580
23.093279 -4.7380061 0.8959142 4283979351
23.019777 -4.870306 0.8942731 4281676598
24.634697 -5.3701329 0.95572382 4280756015
23.979181 -5.3815618 0.93245643 4286085502
23.883392 -5.5142055 0.93012244 4284176732
23.861748 -5.6636477 0.93059653 4284504920
25.055687 -6.1096921 0.97676665 4280624423
25.1612 -6.2992373 0.98216408 4280099884
25.046577 -6.4341102 0.97931951 4284046945
21.296619 -6.0315804 0.84336197 4285165945
21.290884 -6.1713223 0.84456545 4285429630
21.27561 -6.3086634 0.84544069 4285100667
21.026108 -6.3752918 0.83741748 4283454557
20.945549 -6.4914637 0.83584929 4291612883
20.934858 -6.6292143 0.83697981 4294704372
20.928967 -6.7689223 0.8383292 4294440165
20.820616 -6.8752766 0.83577633 4292072391
20.652088 -6.9604483 0.83092594 4289835692
20.450228 -7.0324378 0.82479906 4294704374
20.231295 -7.0962601 0.81801581 4294638322
20.128092 -7.19906 0.81571823 4294572008
20.056313 -7.3125005 0.81466061 4293257940
20.015751 -7.4371662 0.814843 4284244041
20.006191 -7.5736399 0.81626529 4293257178
19.984518 -7.7059612 0.81724995 4294900471
20.1415 -7.9087977 0.82527322 4294638332
20.564909 -8.2210579 0.84383607 4294901759
20.913027 -8.5094252 0.85955435 4294638841
21.314688 -8.8256903 0.8774972 4286480758
31.518518 -13.278088 1.2837286 4284965201
31.429106 -13.468082 1.2834369 4279702031
31.282663 -13.633125 1.2809205 4280821802
31.170101 -13.812265 1.2797899 4282006850
31.055607 -13.990126 1.2786229 4282533196
30.92375 -14.159614 1.2767994 4283258199
30.836287 -14.349091 1.2767994 4284046686
30.76573 -14.546573 1.2775289 4284901997
21.276983 -10.220205 0.8970083 4285100403
19.414034 -9.4723597 0.82392383 4287532945
20.136353 -9.9782352 0.85572505 4287334028
20.053322 -10.09082 0.85484982 4292203730
19.97056 -10.203218 0.854011 4287454044
19.880966 -10.311758 0.8529169 4286926924
21.438168 -11.286942 0.91976511 4285877320
21.03887 -11.242122 0.90612561 4294829541
20.712976 -11.231897 0.89547658 4293912299
29.270517 -16.576883 1.2631963 4289110687
29.161322 -16.752188 1.2629046 4287201663
29.052805 -16.927786 1.2626858 4283321158
28.950972 -17.107256 1.2627952 4283323215
28.845457 -17.284575 1.2627952 4285364599
17.580734 7.6707673 0.50122905 4294635986
17.708315 7.5974407 0.50336373 4292201647
17.811705 7.512733 0.50486767 4292924857
17.958126 7.4450383 0.50751173 4292661685
18.087717 7.3690386 0.50971925 4286478180
18.168789 7.2724061 0.5106653 4286082918
18.306105 7.1973729 0.51309103 4286083171
18.427328 7.1148047 0.51510441 4284175434
18.55757 7.0345621 0.51736039 4283518786
18.673466 6.9477582 0.51925248 4283190848
18.797441 6.8628826 0.5213629 4281215002
18.92296 6.7774196 0.52352184 4285030485
19.035872 6.6863666 0.52536541 4289438868
19.155935 6.5967855 0.52740312 4292531647
19.264252 6.5021458 0.52914965 4292531396
19.43856 6.4284 0.5325942 4294965216
19.593668 6.3465958 0.53555369 4293649356
19.692274 6.2452946 0.5370819 4292597181
19.841928 6.1590281 0.53992003 4292333748
19.978828 6.0673828 0.54244286 4292003755
20.143137 5.982543 0.54566914 4292791210
20.243788 5.8775139 0.54729438 4292397484
20.235231 5.7406359 0.54617852 4293055673
20.230574 5.6054201 0.54518396 4292596142
20.239496 5.4743938 0.54455328 4281542165
19.273247 5.0862799 0.51947081 4293912027
19.275047 4.9604492 0.51874304 4294504917
20.494888 5.1405764 0.54850727 4293188027
20.60762 5.0346599 0.55054492 4292923567
20.763586 4.9379635 0.55367416 4293514421
20.905499 4.8363862 0.55646378 4294832085
21.033291 4.7301803 0.55891383 4285096527
21.164469 4.6234412 0.56146085 4289109901
21.33424 4.5235667 0.56497824 4293451979
21.499664 4.4209757 0.56839859 4291873196
21.657763 4.3151565 0.57164913 4293189577
21.798681 4.2043424 0.57448727 4282992967
21.976391 4.0989285 0.57824719 4289636506
22.14674 3.9902494 0.58183736 4290887066
22.315592 3.8794625 0.5854032 4289439626
22.45433 3.7617953 0.5882414 4289504651
22.576674 3.6400242 0.59069139 4290360219
22.598585 3.5014279 0.59069139 4294571232
4.0276418 0.59778953 0.13459818 4284766282
22.054926 3.1405237 0.5763551 4292201661
22.072792 3.0050027 0.57633084 4294504138
23.577869 3.0627522 0.61271739 4292661917
23.66666 2.9267383 0.61443967 4290623891
23.725874 2.7863665 0.61545849 4279045632
3.7687154 0.41818184 0.12780604 4292267221
3.7264698 0.39034888 0.12671444 4280491297
3.1338711 0.30865869 0.11220833 4290822326
2.9863904 0.27558616 0.10856967 4282861892
3.0228844 0.26027176 0.10941869 4292532417
24.288681 1.9494487 0.62705368 4294899928
2.2890902 0.16853525 0.091492251 4284573266
2.3070374 0.15563898 0.09190464 4284111188
2.1383224 0.13099597 0.087780826 4288517259
1.8785659 0.10337467 0.081449568 4292794572
1.8222512 0.08902891 0.080066875 4288189577
1.7838113 0.076157562 0.07912083 4286611835
1.7812479 0.065099366 0.079048052 4287531657
1.7766179 0.054013427 0.078926772 4286215284
1.7249471 0.041816246 0.077665366 4294634732
1.6831909 0.030442961 0.076646544 4281540642
1.6523577 0.019722722 0.075894557 4282329901
1.6524476 0.0095836744 0.075894557 4281935653
1.6474768 -0.00055758754 0.075773269 4282066726
1.6474423 -0.010666304 0.075773269 4282263078
1.6483455 -0.020786516 0.075797528 4285024064
1.6531845 -0.030990336 0.075918809 4285811001
1.6769493 -0.041713428 0.076500997 4287849806
1.6227025 -0.050366268 0.075191081 4286012748
27.847214 -1.0165011 0.71195561 4293651687
28.002256 -1.1942431 0.7158854 4283452993
28.226059 -1.3773338 0.72151315 4291741872
28.572435 -1.5700115 0.73014891 4291543967
28.792767 -1.7593746 0.7357524 4292594601
28.978926 -1.9492873 0.74055547 4293647287
29.255558 -2.1482821 0.74759018 4294766283
29.552752 -2.3524888 0.7551586 4294963664
30.022833 -2.5753679 0.76697206 4294702031
30.270279 -2.7837868 0.77340037 4294636754
30.597868 -3.0033433 0.78181779 4294635475
30.839375 -3.2182069 0.78817332 4293317303
30.704777 -3.3947439 0.7853837 4290157699
30.812452 -3.59815 0.7885372 4289238389
30.908863 -3.8017848 0.79144812 4287133529
31.23395 -4.0364552 0.79998684 4285884755
22.562286 -3.4810312 0.58974534 4287594617
22.692509 -3.6438057 0.59348106 4287200374
22.825525 -3.8089664 0.59731376 4279044611
22.850977 -3.9574769 0.59852666 4285493101
21.839327 -3.9204965 0.57419616 4294046193
21.882677 -4.0670271 0.57586998 4287137152
21.855349 -4.2008429 0.57582146 4291214772
24.026615 -4.7711191 0.63018292 4282990148
23.17227 -4.7494798 0.60975796 4293913319
23.09672 -4.8818583 0.60861784 4290163118
23.243135 -5.0619812 0.6130085 4287794066
20.883564 -5.7721357 0.56153363 4285167996
20.781382 -5.8813853 0.55985987 4285169025
20.710333 -5.998776 0.5589866 4284905853
20.655884 -6.1206279 0.55854994 4284510838
20.585407 -6.2374001 0.55772519 4284575085
20.51619 -6.3541298 0.55694896 4285692022
20.455847 -6.4732604 0.55641526 4285164649
20.375788 -6.5857425 0.55539644 4283848791
20.280882 -6.6927876 0.55401379 4282795329
20.208168 -6.8065734 0.55321324 4283058249
20.111189 -6.9115982 0.55180633 4286217088
19.978773 -7.0034552 0.54950184 4286612872
19.798923 -7.077127 0.54598445 4294244853
19.686556 -7.1734962 0.54421365 4294835961
19.605619 -7.2805848 0.54326761 4294769663
19.647537 -7.433641 0.54552358 4287664020
19.817043 -7.6370878 0.55112708 4294967036
19.973618 -7.8385091 0.55643952 4294638328
20.575005 -8.2205219 0.57341993 4294441727
20.767735 -8.4456463 0.57979971 4288392130
18.024342 -8.6536789 0.52095056 4294967033
19.50297 -9.5111656 0.56230992 4291347138
19.376158 -9.5969353 0.56046629 4291940815
19.364244 -9.7394495 0.56175196 4294113265
19.310352 -9.8612652 0.56192178 4294835448
19.899166 -10.316339 0.57967842 4289763480
20.806904 -10.949376 0.60631335 4288310642
20.739328 -11.076839 0.60631335 4294894552
19.250618 -10.434131 0.56711292 4294899423
18.947964 -10.421026 0.56051481 4287398002
17.293701 7.5418172 0.25991708 4291873450
17.46188 7.4879742 0.26149553 4292004266
17.561861 7.4036055 0.26219574 4291542432
17.677164 7.3247981 0.2630977 4291936679
17.798643 7.2474928 0.26408273 4291674790
17.898481 7.16043 0.26479483 4291280030
17.980236 7.065465 0.26528138 4291279262
18.080156 6.9769659 0.26600534 4291410846
18.072132 6.8467679 0.26536447 4291476378
18.133486 6.7430682 0.2656137 4291739552
18.254364 6.6608095 0.26662248 4291543980
18.368322 6.5749612 0.26754817 4282728243
18.47908 6.4869704 0.26843828 4285557089
18.636724 6.4141364 0.26992178 4294636766
18.749634 6.3245902 0.27084747 4292069546
18.859295 6.2329583 0.27173758 4292726447
19.000881 6.1506867 0.27303118 4292265383
19.125957 6.0617762 0.27412301 4292725934
19.23633 5.9671173 0.27503687 4293121203
19.35774 5.8748155 0.27609313 4292923824
19.491201 5.7849464 0.27730364 4292791980
19.643492 5.6992316 0.27875155 4291871391
19.771406 5.6050472 0.27990273 4290687624
19.912395 5.5132408 0.28122008 4291083416
20.009558 5.4081755 0.28200334 4281608737
19.328808 5.0971417 0.2732448 4290425761
19.283213 4.9587741 0.27230722 4294637264
20.49272 5.1359329 0.28673866 4294898896
20.591846 5.0266933 0.28756943 4294899150
20.78574 4.9390821 0.28956324 4294766794
20.925745 4.8368945 0.29090431 4293122739
21.068199 4.7338328 0.292281 4293780415
21.201382 4.627284 0.29355088 4292528808
21.274372 4.506639 0.2940968 4293318584
21.233059 4.3619328 0.29326606 4293188538
21.255503 4.2307868 0.29321858 4292465082
21.220186 4.0885577 0.29248276 4285885533
21.280264 3.9648688 0.29291001 4288714115
21.484283 3.8666298 0.29508185 4292594863
21.650457 3.7595353 0.2968027 4294700499
21.724401 3.6352005 0.29741985 4285557342
21.937817 3.532671 0.29972222 4283190338
4.0929432 0.63366896 0.085149504 4294110428
22.201073 3.2960837 0.30238065 4280490505
22.196129 3.1562793 0.30208394 4293319372
22.185354 3.0159867 0.30172789 4294966241
22.798418 2.9569612 0.30884868 4294437576
22.909416 2.8285332 0.30996427 4294965978
22.973021 2.693382 0.31052205 4280951328
3.7993464 0.42214769 0.081363626 4287861902
3.6914775 0.38725868 0.080046281 4294506996
3.1424968 0.31024307 0.073471427 4289046434
3.0427811 0.28157014 0.072260901 4282269755
2.981689 0.25748298 0.071513221 4293978582
24.156988 1.9340674 0.32362428 4292858797
23.88619 1.7649583 0.32026565 4283186472
2.2915618 0.15554279 0.06325312 4285362277
2.4002614 0.14811304 0.064534858 4289309600
1.8510072 0.10291207 0.05799561 4292138697
1.8066614 0.089339778 0.057461552 4289046685
1.7981846 0.077865243 0.057354741 4286282360
1.7896353 0.066498093 0.057247929 4286282108
1.7710199 0.054930992 0.057022437 4292662998
1.7463331 0.043446977 0.05672574 4284173385
1.6805826 0.0315089 0.055942453 4280160008
1.6617472 0.020961229 0.055716962 4282001698
1.656845 0.010733325 0.055657625 4282000933
1.65288 0.00056647626 0.05561015 4282263848
1.6518524 -0.0095693888 0.055598281 4282263848
1.6487629 -0.0196683 0.055562682 4283116843
1.6516106 -0.029839436 0.055598281 4285942848
1.6154097 -0.039093472 0.055171035 4287520601
27.652424 -1.0150921 0.36441448 4290750347
27.632687 -1.1841882 0.3642602 4290356107
27.631889 -1.3540597 0.36434326 4287988072
27.618071 -1.5233049 0.36428392 4287264349
27.715996 -1.6993479 0.36556566 4285291078
23.287405 -1.5712394 0.31301433 4285094218
22.611271 -2.2241375 0.30565619 4289374114
22.697643 -2.3733404 0.30685487 4290165694
22.697561 -2.5142174 0.30703288 4291021522
22.239868 -2.8788149 0.30215517 4282072627
22.566599 -3.6280801 0.30727023 4286473064
21.388023 -3.5733395 0.29336101 4293976041
21.60412 -3.7458506 0.29623303 4284438875
21.880898 -3.9322901 0.29985276 4280423958
21.92812 -4.0798278 0.30071914 4285219913
23.061331 -4.4372582 0.31472331 4284889408
21.89896 -4.3530965 0.3009921 4285095766
25.935257 -6.8323221 0.35431483 4280558628
20.595943 -5.5610299 0.28919533 4283323476
20.558542 -5.6865001 0.28915974 4286087299
20.381838 -5.772481 0.28741515 4285429117
20.296095 -5.882956 0.286798 4284113255
20.217434 -5.9948711 0.28627583 4283982184
20.128597 -6.1031423 0.28563493 4283391077
20.047791 -6.2132125 0.28510088 4283195245
19.977829 -6.3261447 0.28470924 4283523951
19.895826 -6.4347591 0.28417519 4285497482
19.826534 -6.5469971 0.28380728 4282404439
19.738611 -6.6525578 0.28321388 4284707449
19.692692 -6.7719207 0.28315455 4286154383
19.504517 -6.8413229 0.28131503 4286481807
19.395325 -6.9369617 0.2804724 4293914609
19.157934 -6.9849339 0.27801573 4292860890
19.23844 -7.1483283 0.27958229 4293848303
19.303629 -7.3076606 0.28097084 4293718257
20.110226 -7.7544365 0.29180628 4294705150
20.127419 -7.9032679 0.29263705 4286679436
19.187637 -8.3618956 0.28441256 4294569955
19.15608 -8.4883842 0.28467363 4294767337
19.275946 -8.6833887 0.2869167 4280557597
19.549597 -8.9513693 0.29118916 4282270273
18.099987 -8.4223156 0.27293622 4293060325
18.038929 -8.5289421 0.27281755 4289178538
18.013296 -8.6524553 0.2731736 4293915634
18.730915 -9.1390429 0.28335631 4292664279
18.692406 -9.262681 0.28359365 4292796888
18.581625 -9.3502331 0.28288159 4294046694
18.503424 -9.4536076 0.28260863 4294372836
18.58354 -9.6387882 0.28446001 4291540142
17.791447 -9.3669119 0.27463335 4294042833
17.840347 -9.5329247 0.27606937 4294966245
17.923038 -9.718955 0.27798012 4289636004
18.170565 -9.9979467 0.28214577 4290358974
21.746239 -12.670461 0.33470896 4289707488
17.12686 7.4798136 0.023143653 4290556820
17.202755 7.3876076 0.023120614 4291674788
17.298426 7.3033099 0.023082217 4292002726
17.397406 7.2196488 0.023041029 4292200362
17.506193 7.1392016 0.022992158 4291872167
17.618359 7.0591784 0.022940496 4292266925
17.701353 6.966691 0.022910476 4291214237
17.73444 6.854341 0.022917457 4290688404
17.773359 6.7443309 0.022919552 4291346075
18.07679 6.7328954 0.022724075 4292135590
18.232347 6.6637383 0.022638902 4292399022
18.350077 6.579422 0.022581656 4290886302
18.468403 6.4942422 0.022523712 4291873458
18.592985 6.4101391 0.02246088 4291083942
18.715334 6.32411 0.022399444 4291676077
18.860109 6.2443652 0.022321254 4291807404
18.964651 6.1501217 0.022272384 4294504147
19.088764 6.0611858 0.022208855 4286478434
19.189575 5.9638333 0.02216208 4284635979
18.960793 5.7653766 0.022355461 4292792250
19.034151 5.6603303 0.022327537 4292134051
19.131899 5.5618606 0.02228146 4293317804
19.201258 5.4544773 0.022255629 4294500538
19.283508 5.3501959 0.022220023 4293843386
19.373884 5.2474627 0.022178136 4287399522
19.408617 5.1292548 0.022176042 4289630844
19.309965 4.9766197 0.022269592 4293773232
19.416758 4.8772931 0.022214439 4293907120
19.98638 4.8902364 0.021826278 4293907892
20.11134 4.7902222 0.021757862 4293645490
20.239721 4.6897616 0.021686651 4292792750
20.403717 4.5960369 0.021589611 4292331942
20.530197 4.4923506 0.0215191 4293055153
20.653236 4.3866611 0.021450683 4293318586
20.808067 4.2862897 0.021359228 4291805856
20.995783 4.1908393 0.021244036 4291871651
21.099648 4.0771151 0.021188185 4293451979
21.207821 3.9631922 0.021128844 4290361258
21.296686 3.8447177 0.021082768 4293650645
21.116936 3.678607 0.021226583 4291411878
4.2220263 0.7078675 0.033202335 4286543716
21.963072 3.5489221 0.020659002 4283648054
22.09807 3.431746 0.020578716 4279965186
22.078159 3.2900448 0.020607341 4290623401
22.025663 3.1441939 0.020658303 4287398772
22.057423 3.0107467 0.020649228 4286344025
22.046724 2.8716011 0.020669475 4282923827
22.20187 2.7533853 0.020572433 4289637023
22.283894 2.6248295 0.020526357 4284702296
3.7885559 0.42172286 0.033529758 4285885816
3.7920663 0.39857361 0.033529058 4289242267
3.541682 0.35022008 0.033706386 4289637533
3.0489008 0.28244713 0.034053355 4283057483
2.9738653 0.25707248 0.034107111 4291610037
23.562519 1.8994031 0.0196879 4291083954
23.627581 1.7588017 0.019650202 4282201384
2.3276098 0.15784805 0.034562293 4285756263
2.3914135 0.14747161 0.034518313 4287730316
1.8101853 0.10019749 0.034925323 4294178282
1.8007785 0.088590644 0.034932304 4289046428
1.8112785 0.07797619 0.034925323 4288322194
1.7857413 0.065885231 0.034943473 4286346092
1.7381356 0.053419955 0.034976985 4281802523
1.7034419 0.041869819 0.035001419 4284036918
1.6776714 0.030919615 0.035019569 4281406740
1.6648308 0.020456146 0.035028648 4281935655
1.6569251 0.010185705 0.035034232 4281935653
1.6549563 1.7373124e-05 0.035035629 4282132519
1.6509254 -0.010115584 0.035038419 4282788139
1.6518321 -0.020256834 0.035037722 4283642930
1.6516769 -0.030391904 0.035037722 4285745467
1.6304651 -0.040025577 0.035052381 4287586384
1.7481359 -0.053563882 0.034970004 4294961870
20.874302 -0.75497258 0.021608461 4292988341
20.858288 -0.88257629 0.02161614 4289436548
20.821516 -1.0090449 0.021637782 4289042819
20.802952 -1.1361306 0.021646161 4291412396
20.809561 -1.2646022 0.021636385 4293910983
21.703869 -1.8544632 0.020983633 4291809740
22.085543 -2.160362 0.020698795 4293717228
22.509512 -2.3413341 0.020391617 4286943649
22.795898 -2.5125864 0.020180084 4291420927
23.38199 -2.7224679 0.019757016 4287079622
23.365837 -2.8660076 0.019756317 4282404439
23.388475 -3.0145628 0.019727694 4279638035
23.396296 -3.1616294 0.019708844 4279373327
23.391308 -3.3072259 0.019698372 4280491295
23.39036 -3.4536104 0.01968441 4279175687
23.380592 -3.598891 0.019676033 4293386721
22.526665 -3.6091242 0.02026386 4287004551
22.349621 -3.8626454 0.020356711 4281546036
22.155209 -3.9692082 0.020477489 4282202940
22.051779 -4.0904884 0.020533338 4285555046
22.0243 -4.2253423 0.020534735 4283515461
21.916542 -4.3442674 0.020592678 4282727226
21.892412 -4.4792643 0.020590585 4280952875
21.852119 -4.8917379 0.020557772 4280624683
22.802042 -5.2514563 0.019855453 4280164648
22.775229 -5.3926506 0.019851264 4280692021
22.651344 -5.5103168 0.01991619 4281679942
22.622931 -5.6506534 0.019912001 4291946219
22.608173 -5.7945709 0.01989734 4293193715
20.264551 -5.326735 0.021563083 4294441982
20.225693 -5.4494152 0.02156727 4291613140
20.137892 -5.5585179 0.021606367 4291679953
20.007177 -5.6547847 0.021676179 4289312171
19.845299 -5.740766 0.021768333 4290299064
19.80011 -5.8595896 0.021775315 4288127135
19.676685 -5.9546165 0.021838844 4290231487
19.602518 -6.0637155 0.021866072 4290100155
19.497244 -6.1624866 0.021915639 4290627015
19.398157 -6.2623453 0.021960318 4290231487
19.336575 -6.3737397 0.021977074 4291153359
19.250658 -6.476645 0.022011284 4289247162
19.225691 -6.5998368 0.022000112 4289050555
19.148022 -6.7047925 0.02202734 4292404199
19.12159 -6.8275356 0.02201617 4294310394
19.07276 -6.9423413 0.022021057 4284834911
19.207006 -7.1249628 0.021889109 4294178030
21.735899 -8.3677464 0.019930851 4285036941
21.659006 -8.4911051 0.019949701 4288262336
21.600927 -8.6216173 0.01995389 4287927703
21.530941 -8.7472219 0.019966455 4287790969
18.565777 -7.6758122 0.02216557 4291606436
18.446428 -7.7593455 0.022220023 4294964186
18.414103 -7.8790712 0.022208156 4294768879
18.402088 -8.0078688 0.022180231 4294967039
18.539164 -8.203166 0.022037812 4293979887
18.633492 -8.3819857 0.021926809 4290164406
18.547148 -8.480361 0.021953337 4281283127
18.472094 -8.5834703 0.021970792 4286810252
18.020283 -8.5083876 0.022278666 4286941578
18.036263 -8.6516628 0.022225609 4291284166
18.301979 -8.9176483 0.021977773 4292532692
18.157288 -8.9854307 0.022047587 4294966004
18.123259 -9.1074486 0.02203083 4286472541
18.034967 -9.2021189 0.022055963 4290350725
17.422297 -9.0247087 0.022492994 4294366144
17.350658 -9.123064 0.022505559 4294570722
17.301414 -9.2331209 0.022499975 4288783780
17.38689 -9.4162445 0.022386879 4293720831
19.756727 -11.015165 0.020399297 4293524735
19.654821 -11.116983 0.020426525 4292601318
17.117498 7.4649792 -0.20481785 4285888603
17.100489 7.3330116 -0.20393963 4292728506
17.053944 7.1894941 -0.20266104 4293647298
17.113441 7.0912237 -0.20288059 4293055674
17.209415 7.0075779 -0.20361675 4292989878
17.300365 6.9211631 -0.20428833 4292464302
17.357399 6.8207307 -0.20449498 4291213467
17.38866 6.7101398 -0.20435292 4292266925
17.458494 6.6143003 -0.20475328 4292069798
17.568106 6.5328407 -0.205709 4291346075
17.682066 6.4519973 -0.20672928 4291148696
17.787222 6.3669686 -0.20763335 4291279777
17.889168 6.2798977 -0.20849866 4290556058
17.957619 6.1804256 -0.20891194 4290556056
17.814238 6.0090842 -0.20644516 4290292882
18.30744 6.0505834 -0.2126573 4289240709
18.388933 5.9526095 -0.21326432 4290030741
18.522337 5.8704782 -0.21458164 4283846974
18.616266 5.7747865 -0.21536946 4281939491
18.7633 5.6944232 -0.21688053 4293320643
18.884159 5.6047902 -0.21804288 4289108596
19.033432 5.5222464 -0.21959269 4286476355
19.142956 5.4268985 -0.220613 4283647523
19.267443 5.3346834 -0.22183993 4282989095
19.41275 5.2468824 -0.223351 4292989378
19.453283 5.1299639 -0.22346723 4286013772
19.403048 4.9895878 -0.22238237 4292526498
19.651529 4.9251285 -0.22528824 4293053607
19.970856 4.8751149 -0.22913694 4292923818
20.008175 4.7543335 -0.22924027 4292858795
20.055483 4.6357541 -0.22948566 4291871902
20.082573 4.5123897 -0.22947273 4292922537
20.044428 4.3747959 -0.22860742 4292988330
20.102196 4.2583537 -0.22902071 4291935389
20.177902 4.1451898 -0.22967938 4292134310
20.292198 4.0390639 -0.23085466 4291807916
20.476643 3.9453104 -0.23295981 4291216039
20.571239 3.8327794 -0.2338897 4291018925
20.792175 3.7420809 -0.23648563 4289570454
4.3268266 0.75165391 -0.020338885 4291872175
21.078154 3.5270736 -0.23964983 4291147163
21.157642 3.4070525 -0.24041182 4287925369
21.39258 3.3103452 -0.24321437 4289176985
21.497551 3.1916475 -0.24432507 4289110681
20.324818 2.8902123 -0.22877532 4290163102
20.333252 2.7642353 -0.22865909 4290953645
20.309174 2.6341481 -0.22812957 4291941320
20.31106 2.5077689 -0.22794876 4281677887
3.8380558 0.42644477 -0.013493896 4284440667
3.8475616 0.4036164 -0.013584301 4288848538
3.8509612 0.38009873 -0.013597216 4291939243
2.9461613 0.27264151 -0.00183158 4282268456
2.9637184 0.25593346 -0.0020382218 4289966241
2.9443016 0.23606814 -0.001767002 4292267438
19.719582 1.4571539 -0.21901152 4285426021
2.3114851 0.15689173 0.0064599011 4282792743
2.2854574 0.14104733 0.0068086069 4285952100
1.8779398 0.10440385 0.012090875 4294704372
1.8226175 0.090125397 0.012814119 4287072387
1.7871726 0.07739076 0.013279062 4288453527
1.8425716 0.06845364 0.012568733 4284899935
1.7899865 0.055515137 0.013253231 4281807406
1.7733002 0.044111922 0.013472788 4285491296
1.6975569 0.031823244 0.014454333 4280489234
1.6907212 0.021319974 0.014544738 4281737504
1.6658227 0.010789391 0.014867617 4281739044
1.6668575 0.00056800095 0.014854701 4282066726
1.6658297 -0.0096536288 0.014867617 4282591530
1.6647394 -0.019862626 0.014880531 4284432446
1.6605871 -0.030003715 0.014932191 4285877569
1.6643702 -0.040290043 0.014880531 4286994504
1.5221699 -0.046161685 0.016714472 4286470981
20.083796 -0.73714983 -0.223196 4294897377
20.450523 -0.87629896 -0.22800043 4289176220
20.657488 -1.0121919 -0.23075134 4281149738
20.839584 -1.1493353 -0.23319227 4283187017
21.073669 -1.2919949 -0.23631772 4283649116
21.193043 -1.4298944 -0.23797086 4283255892
21.445139 -1.5791494 -0.24135461 4284900455
21.630409 -1.7262996 -0.24388596 4284308069
21.838583 -1.8778389 -0.24672729 4283781471
22.073582 -2.0345671 -0.24993023 4289967035
22.236818 -2.1872981 -0.25221619 4287401876
22.515358 -2.3542769 -0.25601321 4280297271
22.770813 -2.5223327 -0.25952613 4278719534
22.766825 -2.6633985 -0.25968111 4278983733
22.758986 -2.8041437 -0.25979733 4280432206
22.653095 -2.9323115 -0.25864789 4282404710
22.549463 -3.0596893 -0.25753719 4281941336
22.455027 -3.1873116 -0.25655565 4280824142
22.360863 -3.3140376 -0.25558701 4280625725
22.269945 -3.4403386 -0.25467005 4280558638
22.200043 -3.5691419 -0.2540372 4281347117
22.136303 -3.69837 -0.25349477 4281149225
22.139795 -3.8387389 -0.25384349 4279901725
22.228016 -3.9946785 -0.25531581 4280230692
22.155901 -4.1222115 -0.25469589 4280623140
21.834639 -4.2012076 -0.25080845 4281017649
21.677031 -4.3089776 -0.24907783 4280426031
21.491505 -4.4093451 -0.24698558 4278914081
21.43763 -4.535543 -0.24663687 4278849063
21.341984 -4.6523004 -0.24574575 4278587180
21.234011 -4.7654276 -0.24469963 4280956243
21.142992 -4.8814549 -0.24388596 4279378240
21.065943 -5.0000091 -0.24326605 4278918465
20.998924 -5.1204085 -0.2427882 4279379527
20.91861 -5.2370162 -0.24214244 4280365897
20.816355 -5.3473582 -0.24121255 4280692023
20.724169 -5.459445 -0.24042472 4282861131
20.651667 -5.5760765 -0.23990813 4285623400
20.526472 -5.677629 -0.2386941 4282400054
20.4874 -5.8023801 -0.23864245 4281347368
19.913279 -5.9046774 -0.23188785 4280886817
19.924517 -6.0412593 -0.2325336 4286151276
19.897497 -6.300705 -0.23319227 4278387712
19.906984 -6.4383683 -0.23385096 4278190080
19.818682 -6.5444036 -0.23319227 4278256384
19.812263 -6.6773825 -0.23365721 4278388997
19.662178 -6.7614269 -0.23217198 4278519045
20.080772 -7.0434608 -0.23847455 4278914316
20.058834 -7.1742868 -0.23877159 4278586378
19.980616 -7.2848997 -0.23830664 4279637787
19.851183 -7.3760147 -0.23714429 4289046187
19.760664 -7.4806871 -0.23652437 4292665828
19.61923 -7.5650997 -0.23520702 4290035904
19.532421 -7.6696234 -0.23465168 4292074184
19.430214 -7.7674274 -0.2338897 4285819235
19.30439 -7.854845 -0.23280483 4284435268
19.301098 -7.9918919 -0.23343766 4280818201
18.563353 -7.8201766 -0.22379011 4280688155
18.42749 -8.0306091 -0.22324768 4283916381
18.872437 -8.3626909 -0.23023471 4284113760
18.750572 -8.4467077 -0.22924027 4283980895
18.699301 -8.5620165 -0.22925317 4288979880
17.986431 -8.3694735 -0.21985102 4278519306
17.935644 -8.4801054 -0.21986392 4278849548
18.233885 -8.7584181 -0.22488788 4285100653
18.328978 -8.9429235 -0.2270318 4285034344
18.289886 -9.0632114 -0.22726426 4285888374
18.217854 -9.1671743 -0.2270318 4279899160
18.119413 -9.2574024 -0.22642478 4278912522
18.602829 -9.6487913 -0.23429006 4279111708
18.27195 -10.053736 -0.23298565 4288000971
18.234364 -10.179309 -0.23334727 4287407805
18.213326 -10.314653 -0.23396719 4282603637
18.206915 -10.459087 -0.23481959 4283063147
18.224472 -10.618429 -0.23604652 4284049256
16.253914 -9.6043139 -0.20746544 4285428848
16.156082 -9.6807365 -0.20688426 4288981413
16.820791 7.3391371 -0.42476109 4283387988
16.843458 7.2263269 -0.42415798 4282005043
16.871822 7.1162362 -0.42373076 4292530105
16.912397 7.0114298 -0.42365536 4292332199
16.956955 6.9082794 -0.42370564 4291871391
17.02965 6.8163648 -0.42453492 4291411868
17.069294 6.7110128 -0.42448467 4292332969
17.101757 6.60291 -0.4242585 4292596142
17.183077 6.5134449 -0.42536423 4293912002
17.248955 6.4176512 -0.42606786 4294964950
17.337776 6.3298664 -0.42739975 4293714371
17.500517 6.2678661 -0.43071693 4292661685
17.845177 6.2680564 -0.4388842 4291871400
17.87763 6.1564894 -0.43873343 4289765774
17.696274 5.972815 -0.43292838 4290555286
18.16823 6.0082164 -0.4444631 4292397484
18.365479 5.9486957 -0.44871008 4291081363
18.397821 5.8346858 -0.44860956 4290818190
18.42182 5.7181325 -0.44830799 4291279001
18.40395 5.5890102 -0.44692585 4291935904
18.41873 5.4702868 -0.44642323 4291606426
18.44907 5.3563323 -0.44634783 4292133797
18.536404 5.2585845 -0.44778025 4283317799
18.645391 5.1661077 -0.44979066 4283975488
18.778063 5.0790167 -0.45242932 4294568679
18.879435 4.9823265 -0.45426384 4282331943
19.045185 4.9012799 -0.45778203 4287792234
19.184471 4.8118172 -0.46062174 4291607453
19.29715 4.7144213 -0.46278292 4291607958
19.443392 4.6239204 -0.46582368 4291936929
19.581455 4.5299983 -0.46866336 4292266155
19.67325 4.4242435 -0.47032198 4294963414
18.680414 4.0806527 -0.44408613 4292530097
18.681631 3.9609768 -0.44348302 4292266157
18.643896 3.8335855 -0.44189981 4291608228
18.608242 3.7073929 -0.44039202 4288582016
18.569782 3.5814042 -0.43883395 4288385415
18.546202 3.4589605 -0.43767795 4288912270
4.3880672 0.7896601 -0.075503021 4285952614
18.398151 3.1982253 -0.43285298 4287790442
18.31292 3.0677621 -0.43018919 4287921769
18.264288 2.9445145 -0.42848036 4286408276
18.24052 2.8259606 -0.42742488 4290488474
18.216972 2.7079566 -0.42639455 4290094488
18.146154 2.5837224 -0.4241831 4289370505
18.081434 2.4614038 -0.42214757 4291871399
17.998051 2.3376579 -0.41965967 4292922799
17.988243 2.2242343 -0.41905656 4291673260
3.804719 0.44583824 -0.059721317 4282860880
3.7398217 0.41496673 -0.058012474 4283125844
3.8138804 0.39953277 -0.05982184 4281151016
3.8311827 0.377599 -0.060198788 4293516240
17.657804 1.6352401 -0.40920556 4292788388
2.7319975 0.23511338 -0.032354642 4283584069
2.6995087 0.21562482 -0.031500224 4293649630
2.6579118 0.19587871 -0.030419629 4293518545
2.3458855 0.15827952 -0.022528779 4283385145
2.3368349 0.14326575 -0.022277478 4284373582
1.8356056 0.10098387 -0.0096370392 4294440425
1.8202153 0.088928141 -0.0092349574 4286086004
1.819728 0.077714533 -0.0092098266 4287205000
1.7772139 0.064949296 -0.0081292316 4283453510
1.7456045 0.053050142 -0.0073250718 4284700489
1.7239109 0.041790426 -0.006772209 4288251769
1.7061437 0.030874031 -0.0063198656 4281145367
1.6683161 0.01992449 -0.0053649247 4282000423
1.6694067 0.0096940249 -0.0053900518 4282197285
1.6604375 -0.00055278064 -0.0051638819 4282394151
1.6574037 -0.010723733 -0.0050884932 4282722346
1.6553077 -0.020869378 -0.0050382316 4283906361
1.6571474 -0.031061819 -0.0050884932 4286009155
1.6659201 -0.041446768 -0.0053146631 4287717719
20.297018 -0.74121481 -0.47399095 4289835189
20.447895 -0.87237954 -0.47791126 4293849845
20.634869 -1.0072247 -0.48276135 4294705151
20.828932 -1.1448352 -0.48781249 4294835967
20.932276 -1.2793809 -0.49060193 4294638841
21.243208 -1.4292517 -0.49864355 4294243824
21.429453 -1.5739123 -0.50356907 4294835961
21.607735 -1.7203567 -0.5083186 4293848553
21.81391 -1.8715242 -0.51379699 4294966780
21.94437 -2.0184226 -0.51739061 4288255378
22.763987 -2.517108 -0.53915328 4280428333
22.744141 -2.6562741 -0.53905272 4280296236
22.621593 -2.9237797 -0.53681618 4280559157
22.519024 -3.0511239 -0.53468013 4280691004
22.450388 -3.1822281 -0.5334236 4280297274
22.382971 -3.3128977 -0.53221732 4279836974
22.327642 -3.4448414 -0.5313378 4283192668
22.275488 -3.5768647 -0.53055876 4284441955
22.19297 -3.7034431 -0.52902585 4283192660
22.076252 -3.8233452 -0.52663845 4282336581
22.171436 -3.9800973 -0.52967924 4283323222
21.734125 -4.1775494 -0.51977795 4279903277
21.643366 -4.2979803 -0.51811939 4280297786
21.549013 -4.4168544 -0.51638538 4280232258
21.464777 -4.5370054 -0.51492786 4279574588
21.382812 -4.6569281 -0.51354569 4280363844
21.267992 -4.7688003 -0.51133424 4280364357
21.169168 -4.8832579 -0.50955003 4279903806
21.068771 -4.9964523 -0.50774062 4279970369
20.985268 -5.1128583 -0.5063836 4280628297
20.892403 -5.2262449 -0.50480044 4279773497
20.806684 -5.340673 -0.50341827 4280365123
20.74452 -5.4606071 -0.50266439 4279968570
20.646921 -5.5706072 -0.50100577 4280164923
20.554537 -5.6812129 -0.49949798 4279769641
20.460615 -5.7906232 -0.49796507 4281480508
20.408375 -5.9113307 -0.49753782 4279770141
20.314209 -6.0194054 -0.49603006 4279770139
20.190786 -6.1178522 -0.49376836 4279770139
19.948347 -6.3126926 -0.48939571 4279375385
19.912092 -6.4358964 -0.48947111 4281217587
19.801025 -6.534462 -0.48758635 4280625712
19.771927 -6.6596642 -0.48788789 4280035634
19.654114 -6.7545438 -0.48585233 4279574312
19.583994 -6.8650923 -0.48509845 4289904067
19.518909 -6.9770536 -0.48449531 4278521625
19.472914 -7.0956612 -0.48441991 4278850085
19.367155 -7.1920462 -0.48276135 4278981414
19.294611 -7.3001342 -0.48200747 4278849063
19.222404 -7.4079623 -0.48127869 4279506995
19.132849 -7.5086074 -0.48009756 4279178290
19.056709 -7.6139956 -0.47929338 4279442744
18.965181 -7.712708 -0.47808716 4279904058
18.892559 -7.8186107 -0.47740862 4279772212
18.851601 -7.93749 -0.47760966 4280035384
18.726267 -8.0203485 -0.47552386 4280100152
18.646458 -8.1219273 -0.47469458 4280954174
18.569763 -8.2244492 -0.47396579 4281085233
18.524418 -8.3406982 -0.47411659 4279900698
18.461985 -8.449214 -0.47381505 4280821802
18.336369 -8.5281906 -0.4717795 4284769893
18.440321 -8.8533649 -0.47763482 4284837216
18.332634 -8.9404955 -0.47615215 4283191890
18.075867 -8.9529924 -0.47049788 4280230967
17.879166 -9.1304951 -0.46808538 4278193186
17.805943 -9.231286 -0.46760789 4289641671
17.740118 -9.3357134 -0.46735659 4279442226
17.663103 -9.4340286 -0.46680376 4284443523
17.592577 -9.5355606 -0.46645191 4287668908
17.495195 -9.6221313 -0.46534619 4281418565
17.427095 -9.7244301 -0.46509489 4286481790
17.377541 -9.8370857 -0.46539643 4285558872
17.300381 -9.9340706 -0.464919 4279569674
17.233051 -10.036515 -0.46474305 4279045128
17.206438 -10.162909 -0.46577343 4279637267
16.835751 7.3421154 -0.65276694 4284505671
16.845583 7.2237101 -0.65134132 4285360212
16.885906 7.1186581 -0.65119129 4286676073
16.915422 7.0091767 -0.65062851 4291083952
16.866486 6.8679461 -0.64691448 4291347373
16.797897 6.7201586 -0.64245009 4291018660
16.880669 6.6334081 -0.64413828 4292465587
16.917324 6.528266 -0.64398825 4293451963
16.915945 6.4087634 -0.64233756 4294240450
16.982113 6.314949 -0.64342552 4293450680
17.086254 6.2346058 -0.64605159 4292004517
17.208864 6.1599574 -0.64942801 4289308034
17.355711 6.0926433 -0.65377986 4291809457
16.31085 5.6136999 -0.61082429 4285951845
17.598661 5.9363723 -0.66049516 4289107080
17.715408 5.8549304 -0.66368401 4290553237
17.784275 5.7568908 -0.6649971 4289568141
17.889755 5.6700006 -0.66777325 4288516732
18.012016 5.5873604 -0.67122471 4288518266
18.121504 5.4996605 -0.67418844 4288779643
17.160507 5.0932498 -0.63524705 4292924088
17.18088 4.9847965 -0.63483441 4294699986
17.171722 4.8681087 -0.63329625 4292594352
17.156969 4.7503881 -0.63157052 4292068776
17.1173 4.6265144 -0.62890691 4290292365
17.078695 4.5038176 -0.62631834 4290356620
17.024712 4.378036 -0.62316698 4289698691
16.990187 4.2581882 -0.62080348 4288252531
16.886877 4.1223421 -0.61581391 4287398758
16.843798 4.0024786 -0.61318779 4286016074
16.814491 3.8866744 -0.6111244 4287595624
16.763924 3.7667816 -0.60827321 4288121463
16.720331 3.6493607 -0.60572213 4291871146
16.674952 3.5324101 -0.60313356 4294437843
16.608217 3.4119315 -0.59975713 4293780162
16.588657 3.3019638 -0.59821898 4292002977
16.554634 3.1897182 -0.59615564 4293644720
4.5533295 0.84867018 -0.13711262 4288385926
16.371244 2.9465051 -0.58771455 4294300087
16.362432 2.841382 -0.58670163 4294038197
16.335207 2.7335098 -0.58501345 4294104501
16.286558 2.6227429 -0.58253741 4294039225
16.249016 2.5145102 -0.58051157 4294367422
16.243383 2.4116793 -0.57972372 4294170035
16.228193 2.3077462 -0.57859826 4293906861
16.182636 2.200053 -0.57634729 4293907124
16.191866 2.1002026 -0.57619727 4293513657
16.123125 1.9907722 -0.57312095 4292330927
3.8171167 0.44784722 -0.10751269 4294309357
3.7433167 0.41592795 -0.10462397 4284240464
3.8074174 0.39940926 -0.10694995 4292331448
3.9699066 0.39182696 -0.11298998 4292857784
2.667558 0.21391578 -0.063694261 4287138957
2.388824 0.1621282 -0.053114817 4284307020
2.3359139 0.1441527 -0.051088966 4282728760
2.0533886 0.11412178 -0.040434487 4289241235
1.8264866 0.090315893 -0.031880893 4286612346
1.8300015 0.079236135 -0.031993434 4283717970
1.7905085 0.066530354 -0.030492805 4287336839
1.8198489 0.056434851 -0.031580761 4288387205
1.7991822 0.044750113 -0.030792929 4289108873
1.6845236 0.031581882 -0.026478618 4287989888
1.6826873 0.0212205 -0.026403584 4281870125
1.6737922 0.010839161 -0.026065946 4282000933
1.6718286 0.00056854321 -0.025990911 4282197285
1.6688029 -0.0096715484 -0.02587837 4282656553
1.6687121 -0.019910946 -0.02587837 4283510576
1.6685586 -0.030149596 -0.02587837 4285023804
1.6653451 -0.04031387 -0.025765821 4286863437
20.474785 -0.75150812 -0.73241293 4294965745
20.520706 -0.87930769 -0.73432624 4292925390
20.59078 -1.008922 -0.73717743 4291017133
20.710922 -1.1422367 -0.74194193 4290621346
21.085535 -1.2927226 -0.75631046 4293713103
21.218784 -1.4316317 -0.76163769 4287792762
21.322214 -1.5700953 -0.76587701 4285556578
21.705648 -1.7323059 -0.78069574 4288189337
21.84296 -1.8782152 -0.78628558 4281939778
22.077805 -2.0349565 -0.79558945 4278783254
22.280706 -2.1916161 -0.80373043 4283587428
22.534191 -2.3562465 -0.81382215 4281218625
22.63949 -2.5077837 -0.81836152 4279770668
22.529694 -3.4804699 -0.81907433 4280822837
22.477327 -3.6137264 -0.81791139 4279375643
22.437977 -3.7487769 -0.81727362 4280031775
22.3988 -3.8836513 -0.81667334 4279768603
22.31455 -4.0102315 -0.81438488 4280163361
22.172613 -4.1253219 -0.80992049 4280952877
22.131186 -4.2582712 -0.80932027 4280032294
21.954681 -4.3641744 -0.80358034 4279835945
21.886377 -4.4903679 -0.80200469 4279835691
21.775311 -4.6069922 -0.79881585 4279704109
21.718319 -4.734344 -0.79772788 4279967281
19.936783 -6.1788073 -0.74681896 4279835932
19.91469 -6.3061495 -0.74745673 4279375381
19.886084 -6.4316082 -0.74786943 4280230690
19.840551 -6.5516257 -0.74764431 4279901729
19.78956 -6.6697307 -0.74723166 4279639844
19.679436 -7.0385833 -0.74786943 4279705126
19.372389 -7.1981015 -0.73909074 4279639846
19.295147 -7.3044491 -0.73777765 4279639595
19.208939 -7.4068847 -0.73612696 4279507755
19.021748 -7.46909 -0.73042458 4279441964
19.034945 -7.609406 -0.73282558 4279507498
18.946243 -7.7091103 -0.73113739 4279309601
18.781147 -7.9119315 -0.7283237 4279770403
18.735922 -8.0285959 -0.72847378 4279507231
18.690886 -8.145402 -0.72866136 4279573022
18.633245 -8.2566957 -0.72836119 4279836445
18.577677 -8.3688202 -0.72817361 4280296737
18.543341 -8.6286297 -0.73106235 4281612345
18.445066 -8.8598623 -0.7314375 4280033822
18.347248 -8.9518375 -0.72963673 4279375896
18.208706 -9.0229807 -0.72614777 4279309849
18.158354 -9.1372318 -0.7263729 4279704356
17.995163 -9.1939173 -0.72187096 4279639333
17.901154 -9.2848368 -0.72029531 4279441952
17.795214 -9.3688955 -0.71823198 4279508260
17.718002 -9.4675474 -0.71740663 4279705128
17.641129 -9.566081 -0.71661878 4279835942
17.548834 -9.655838 -0.71519315 4279506716
17.478785 -9.7574892 -0.71474296 4281544486
17.403803 -9.8561811 -0.71410519 4280887058
17.335201 -9.9583035 -0.71376759 4280886289
17.25564 -10.053919 -0.71297973 4280360723
17.183302 -10.153506 -0.71252954 4280492573
17.111248 -10.2531 -0.7121169 4280098328
16.502256 7.2069836 -0.86579078 4279505413
16.525059 7.0965266 -0.86463916 4279176965
16.557251 6.9903345 -0.86403835 4278519040
16.581383 6.8809524 -0.86303693 4279374093
16.602022 6.7704058 -0.86188531 4284702550
16.622854 6.6602373 -0.86078382 4288716683
16.657833 6.5559211 -0.86048335 4291544485
16.715445 6.4604287 -0.8614347 4291939492
16.748236 6.3552623 -0.86108422 4293912002
16.763517 6.2436614 -0.85983247 4293845441
15.76175 5.2183313 -0.79539233 4289762679
15.64812 5.0743737 -0.78773165 4288119658
15.599955 4.9531717 -0.78357583 4286411360
15.573783 4.8398676 -0.78062171 4287527788
15.50381 4.713994 -0.77541441 4291344293
15.477878 4.6025457 -0.77256042 4294963166
15.45404 4.4924297 -0.76985663 4294964188
15.435199 4.3844185 -0.76745331 4294963416
15.37231 4.2647901 -0.76279682 4293450172
15.348061 4.156806 -0.76019317 4293055414
15.324033 4.0495367 -0.75763959 4292725934
15.313775 3.9464591 -0.75583708 4293381295
15.283459 3.8387923 -0.75303316 4293709745
15.236876 3.7278478 -0.74942809 4293711026
15.199227 3.619935 -0.74632376 4293515703
14.717162 3.409796 -0.72038752 4292988332
15.038872 3.3872631 -0.73585916 4293381546
15.047665 3.2923601 -0.73525828 4293249192
15.048044 3.1958163 -0.73425686 4293316015
15.076175 3.1052372 -0.73470753 4291737242
4.6837668 0.93396789 -0.20246336 4289963131
4.607039 0.88929009 -0.19825748 4294041020
15.265782 2.7556129 -0.74071592 4293906619
15.322743 2.6689215 -0.74276876 4291673007
15.502334 2.6023116 -0.75108039 4291542963
15.593927 2.5194135 -0.7549358 4292464831
15.718638 2.4407015 -0.76049358 4294965222
15.761965 2.3484786 -0.76194561 4294175457
15.894724 2.2686639 -0.76795399 4294307560
16.068655 2.1929829 -0.77606535 4291544770
16.315536 2.1248024 -0.78788185 4283584847
16.429363 2.037195 -0.79298902 4289900721
3.6284192 0.42640334 -0.14618467 4290356369
16.712189 1.8643464 -0.80605727 4284703338
16.818666 1.771819 -0.81086397 4282664782
16.930595 1.6786464 -0.81597114 4282599500
17.041016 1.5840741 -0.82102823 4286284678
17.173794 1.4901969 -0.82723689 4288719018
2.4948249 0.20005764 -0.088504031 4286609775
2.5199089 0.18652646 -0.089705706 4287268475
2.315743 0.15703729 -0.079391286 4281741611
2.3156662 0.14276324 -0.079341218 4285360478
2.3982677 0.1331311 -0.083446957 4294963682
1.8244753 0.089771897 -0.054606631 4285426522
1.8020425 0.077572569 -0.053455025 4284836701
1.8064766 0.066663906 -0.053655304 4287139973
1.8068515 0.055578317 -0.053655304 4288059531
1.735272 0.042674132 -0.050050266 4289176472
1.6895672 0.031147184 -0.047747046 4288451468
1.6767439 0.020610929 -0.047096133 4281870887
1.6678505 0.010260609 -0.0466455 4281739301
1.6668831 2.5959685e-05 -0.046595432 4282000933
1.6638559 -0.010185616 -0.046445221 4282198055
1.6577698 -0.02032543 -0.046144798 4283380017
1.6606096 -0.030549923 -0.04629501 4286008904
1.6573956 -0.040667284 -0.046144798 4288639080
20.487833 -0.74101669 -0.99081558 4287661952
20.513836 -0.86802083 -0.9923678 4294966774
20.635811 -1.0000558 -0.99877673 4294901240
20.79583 -1.1357422 -1.0071384 4294506995
21.017759 -1.2772427 -1.0186545 4294967291
21.068321 -1.410113 -1.0216086 4294835709
21.499546 -1.5715169 -1.0437396 4294835707
21.576117 -1.7102674 -1.0480956 4294573046
21.798075 -1.8625076 -1.0598119 4292599260
22.008598 -4.3625102 -1.0878512 4279967522
21.939341 -4.4888635 -1.0856982 4279704350
20.282623 -5.3314848 -1.0143985 4282071375
20.2206 -5.4480433 -1.0128964 4279376163
20.207006 -5.5775909 -1.0139478 4279113240
20.153183 -5.6960421 -1.0129465 4279574045
19.811722 -6.1284165 -1.0026821 4280098329
19.633326 -6.3382502 -0.99732465 4279966750
19.501057 -6.560873 -0.99452072 4279376159
18.723265 -8.2846136 -0.98946375 4280690473
18.677544 -8.4017992 -0.98976415 4280098590
18.629274 -8.5179043 -0.98996443 4279769625
18.394869 -8.9629011 -0.98886281 4281548346
18.28582 -9.0490255 -0.98585862 4281218100
18.086004 -9.3684587 -0.98415631 4282336343
16.532766 7.2065592 -1.0848726 4281741093
16.561079 7.0982966 -1.083817 4281347105
16.574888 6.9841452 -1.08183 4281478693
16.600832 6.8754382 -1.0807123 4281478954
16.626991 6.7670522 -1.0796567 4283782224
16.65152 6.6582336 -1.078539 4281808683
16.662331 6.5442615 -1.076552 4285690207
16.636057 6.4164009 -1.0721433 4287465339
16.562172 6.27144 -1.06463 4290688692
16.575081 6.1603107 -1.0629535 4283189317
16.623819 6.0625949 -1.0636986 4281742892
16.669165 5.9635048 -1.0642575 4283388489
16.301413 5.7193689 -1.0376192 4283455052
16.190853 5.5692458 -1.0280569 4285427553
16.097986 5.427073 -1.0197363 4284373834
15.985036 5.2799911 -1.0101738 4287728250
15.855696 5.1295867 -0.99961782 4289700244
15.785063 4.9999561 -0.9929738 4292199862
15.614295 4.840652 -0.97987211 4294700766
15.416385 4.6758142 -0.96509373 4294700763
