# .PCD v0.7 - Point Cloud Data file format
VERSION 0.7
FIELDS x y z rgb
SIZE 4 4 4 4
TYPE F F F U
COUNT 1 1 1 1
WIDTH 1087
HEIGHT 1
VIEWPOINT 0 0 0 1 0 0 0
POINTS 1087
DATA ascii
34.321861 13.991035 1.8416589 4287599768
34.96524 14.003749 1.8709617 4287861142
35.652798 14.025908 1.9025033 4287336849
36.300934 14.024308 1.9319032 4283721831
37.115662 14.077978 1.9699188 4278593326
37.823807 14.081739 2.0022879 4286288284
38.610306 14.105437 2.0386486 4287930016
39.209503 14.052267 2.0652254 4287666582
40.31078 14.168482 2.1176975 4287796885
41.031532 14.139567 2.1504073 4286943120
41.997566 14.184802 2.1956756 4283324516
42.922997 14.20458 2.2387533 4286812045
45.365578 14.39775 2.354893 4288519330
48.615776 14.449916 2.5070524 4288980643
3.8550129 0.50045967 0.22485545 4286609777
3.8352127 0.47397181 0.22373593 4286280297
3.8189015 0.42443821 0.22266507 4283906871
3.8105071 0.39984795 0.22212964 4283971127
3.3079617 0.3264505 0.19740251 4284827714
2.7131803 0.2507416 0.16819724 4283119408
2.4758475 0.21339193 0.15651514 4282856232
2.3755593 0.19002302 0.15155023 4283053865
2.2511761 0.1661167 0.14541714 4283711024
2.0797579 0.14055263 0.13699628 4284631347
2.0048165 0.12309264 0.13329695 4284959811
1.8878573 0.10421949 0.12755325 4294961369
1.8695071 0.091692343 0.12662841 4290418813
1.8790152 0.080610417 0.12706649 4286732360
1.8395498 0.06758716 0.12511948 4284825404
1.8519098 0.056672812 0.12570357 4287461501
1.7913141 0.043780178 0.12273438 4287005566
1.7096611 0.031235835 0.11874299 4286077519
1.6808574 0.020373711 0.11733141 4284756269
1.6679662 0.0099730287 0.11669862 4282719517
1.6560103 -0.00026814535 0.11611452 4282721574
1.6599727 -0.010451565 0.11630923 4282655783
1.6468937 -0.020484511 0.11567644 4282655781
1.6497329 -0.030642793 0.11582246 4282982949
1.6634933 -0.041100331 0.11650392 4282982951
1.6731933 -0.051607501 0.11699068 4282526248
31.836325 13.88353 1.3030938 4281152319
32.316772 13.857664 1.3188121 4278522145
33.032898 13.925407 1.34383 4282797918
33.740898 13.980667 1.3684468 4289903039
34.270309 13.954266 1.385952 4287271573
34.745911 13.899987 1.4013057 4287534996
35.622997 13.99791 1.4323775 4287665814
36.194893 13.966862 1.4514145 4285034359
37.061176 14.040481 1.4819027 4282799715
37.852882 14.075423 1.5094006 4285824650
38.568466 14.072737 1.5338715 4289638324
39.339989 14.081325 1.5604576 4287731092
40.557167 14.236861 1.6042207 4287863191
41.012287 14.114566 1.6184438 4283192670
42.705334 14.113509 1.676977 4287600791
43.960571 14.229739 1.7218342 4288126615
46.153458 14.316255 1.7990762 4288519340
49.072491 14.236964 1.9002784 4288783529
3.9678001 0.53972244 0.18173602 4286152060
3.9759929 0.51600897 0.18191837 4286348151
3.7762377 0.41958243 0.17425983 4280096796
3.8145216 0.40015382 0.17557271 4289110440
3.6219804 0.35752094 0.16842474 4293452514
3.6290817 0.33574995 0.16860709 4285818984
3.7545331 0.32412127 0.17312928 4281738800
2.8758554 0.23058927 0.14089042 4285293666
2.1845205 0.14829531 0.11550779 4291478457
2.1744175 0.13421327 0.11510663 4285094220
2.1722069 0.12070297 0.11499722 4284038711
1.9742793 0.097592652 0.10773983 4293247930
1.8640177 0.080701798 0.10369174 4281602569
1.8385128 0.068303697 0.10274354 4283183148
1.8239144 0.056560058 0.1021965 4294238693
1.8102407 0.045022793 0.10168593 4280295708
1.7335473 0.032489747 0.098877795 4284365872
1.6857495 0.021258419 0.097127266 4287387210
1.6678605 0.010802117 0.096470818 4283312419
1.6628988 0.00056756916 0.096288472 4282853673
1.6618716 -0.0096297739 0.096252002 4282721828
1.6617812 -0.019826645 0.096252002 4282983970
1.6646259 -0.030077627 0.096361414 4283246119
1.66441 -0.040291015 0.096361414 4283180330
1.6960951 -0.051480338 0.097528428 4282066467
1.5619267 -0.056972124 0.092641547 4294175459
31.771788 13.86359 0.8769322 4287533713
32.232002 13.829615 0.88685364 4287336849
33.013523 13.925733 0.90521669 4288718248
33.454803 13.870708 0.91458017 4283718234
34.246593 13.953383 0.93311304 4287468435
34.74828 13.909813 0.94400477 4287600019
35.411659 13.9239 0.95909303 4287534228
36.363731 14.041282 0.98165274 4287797400
36.893219 13.986236 0.99317509 4287140499
37.693222 14.02563 1.0116837 4288061861
38.083767 13.905531 1.0195675 4284310117
41.911522 14.147592 1.1091511 4287928471
42.861252 14.175848 1.1312256 4287862427
43.858524 14.207761 1.1544645 4288060057
4.0480595 0.57546192 0.13501057 4283125836
3.8233058 0.37682027 0.1290189 4292992224
3.2402275 0.29911017 0.11475538 4289242275
2.9392216 0.25303587 0.10738105 4285361006
2.8340936 0.22643332 0.10478547 4290493633
2.3239932 0.15679148 0.092317015 4294963951
2.3149333 0.14191206 0.092074439 4287002482
2.2548728 0.12431671 0.090594724 4280423958
1.8402239 0.089918531 0.080503523 4284960080
1.8127756 0.077413149 0.079824299 4283577136
1.7912381 0.065471038 0.079290628 4284169273
1.8205837 0.055379029 0.079994112 4283248179
1.782912 0.043260716 0.079072312 4289635744
1.7451618 0.031606827 0.078150526 4285615171
1.7073371 0.02041785 0.077228725 4284559140
1.6834378 0.0097853243 0.076646544 4283048219
1.6604729 -0.00055276748 0.076088622 4282919207
1.6554399 -0.010712411 0.075967327 4282853413
1.6543432 -0.0208579 0.075943068 4283050276
1.6561832 -0.031044429 0.075991586 4282984230
1.6529633 -0.041133504 0.075918809 4283245862
1.6676686 -0.051729552 0.07628268 4282853673
1.6603265 -0.061706215 0.076112874 4291148470
31.568377 13.766684 0.4447487 4284178531
31.990446 13.717741 0.44911611 4287994266
32.775208 13.816779 0.45814762 4287599510
33.434875 13.853871 0.46554136 4287599508
34.15271 13.906383 0.47365904 4287665303
34.678387 13.872975 0.47929633 4287402131
35.351032 13.891046 0.48679689 4287599508
36.914909 13.985069 0.50451577 4287927955
4.1373072 0.61456317 0.085636094 4293388002
3.7998762 0.39861897 0.081339888 4294177001
3.6350734 0.35881186 0.079346076 4289635752
3.8184214 0.35324678 0.081506044 4294109676
3.0534177 0.26366776 0.072367713 4285096803
2.9263983 0.23463504 0.070836745 4287203210
2.4890954 0.1689173 0.065602973 4294835699
2.339381 0.1443661 0.063810915 4285886822
2.3951347 0.13305072 0.064463645 4281084194
1.8306305 0.090519935 0.057746384 4294965234
1.8111717 0.078424811 0.057509027 4287790968
1.8156158 0.067457847 0.057556495 4287593841
1.7710199 0.054930992 0.057022437 4286805616
1.7593282 0.043767408 0.056880023 4286476649
1.7275714 0.03237908 0.056500249 4281142275
1.7067405 0.021518318 0.056251019 4284952101
1.6718436 0.010826993 0.055835642 4283572509
1.6558797 0.0005668035 0.055645756 4283114276
1.6598517 -0.0096175997 0.055693228 4283049765
1.654762 -0.019741269 0.055633888 4283049763
1.6516106 -0.029839436 0.055598281 4283180581
1.6543953 -0.04004626 0.055633888 4283311906
1.6691103 -0.050655141 0.055811904 4283183148
1.644786 -0.060014959 0.055527076 4294439924
31.666317 13.830718 0.012067096 4287862164
32.114441 13.79244 0.011790635 4288388508
32.805557 13.851486 0.011330567 4289375403
4.2025976 0.67811865 0.033219088 4287927183
4.1967974 0.65078419 0.033226069 4288584598
3.8179231 0.40129939 0.033510908 4279571206
3.8531525 0.38112369 0.033487868 4280754726
2.9115939 0.23367475 0.034151793 4281283893
2.5969818 0.17625184 0.034373797 4294704115
2.3275368 0.14350109 0.034562994 4281213211
2.3353622 0.12960829 0.034558106 4285423711
1.8047736 0.088789791 0.03492951 4294309357
1.822268 0.078456424 0.034917641 4288385415
1.8227153 0.067273714 0.034917641 4286870120
1.8250927 0.056151267 0.034916248 4287526005
1.7224357 0.042349774 0.034988154 4281672222
1.7106653 0.031550791 0.034996532 4283051806
1.6768298 0.020612042 0.035020269 4287125831
1.6769246 0.010322821 0.035020269 4283836708
1.6549563 1.7373124e-05 0.035035629 4283311912
1.6499255 -0.010110168 0.035039119 4283115558
1.6488323 -0.02022218 0.035039816 4283311906
1.6466776 -0.030303469 0.035041213 4283245859
1.6434615 -0.040335257 0.035043307 4283443238
1.7111526 -0.052455541 0.034995835 4283380015
31.781525 13.859633 -0.41144618 4287202694
32.239998 13.824747 -0.41670263 4288057488
4.3185368 0.72294575 -0.02017099 4287993237
3.8266778 0.40142775 -0.013313085 4280424219
3.8300643 0.37803826 -0.013325997 4282464567
3.8213592 0.35351822 -0.013183933 4291413962
2.9547524 0.25516036 -0.0019219853 4287334028
2.9024391 0.2327172 -0.00122457 4286675319
2.9167757 0.21586147 -0.0013924651 4294373099
2.3323648 0.14393428 0.0062015988 4280293138
2.325217 0.12917803 0.0063049197 4285751388
1.8356006 0.090764642 0.012646222 4293715170
1.8111483 0.078423806 0.012969099 4288518544
1.8105961 0.067272417 0.012982015 4289241748
1.7829905 0.055299666 0.013343638 4281144335
1.7713009 0.044062626 0.013498617 4281671711
1.7605408 0.03298964 0.013640683 4279898118
1.7147174 0.021617085 0.014234778 4285415999
1.6918201 0.010951746 0.014531825 4284361765
1.6768566 0.0005690917 0.014725551 4283311401
1.6698292 -0.0096777342 0.014815956 4282984230
1.6727381 -0.019959917 0.014777211 4283180579
1.6725841 -0.030223269 0.014777211 4283050022
1.6743664 -0.040534344 0.01475138 4282591012
1.6790835 -0.050960109 0.014686804 4283575856
4.4588189 0.77419585 -0.077186733 4285888120
3.8411639 0.42624345 -0.060575742 4282001962
3.83973 0.40224865 -0.060475219 4290559162
3.7346838 0.36805856 -0.057761174 4282661692
3.830441 0.35380748 -0.060123403 4282726976
3.8156087 0.32883328 -0.059696186 4293782508
2.7453465 0.21930605 -0.032656204 4286281077
2.7446463 0.20230898 -0.03260595 4283453009
2.3348393 0.1431424 -0.022227217 4280490776
2.2687984 0.1250917 -0.020543501 4285751385
1.8881106 0.092288867 -0.010943804 4293124303
1.819728 0.077714533 -0.0092098266 4289174929
1.8051857 0.065989941 -0.0088328756 4289042065
1.8335344 0.055781282 -0.0095365196 4285419340
1.8018621 0.043732949 -0.0087323561 4283906101
1.728133 0.031287007 -0.0068727285 4283051816
1.6933063 0.02024045 -0.0059931763 4285942070
1.6814026 0.0097720809 -0.005691614 4283442462
1.6734334 -0.00054796069 -0.005490575 4283048995
1.6684 -0.010787128 -0.0053649247 4283114535
1.6643041 -0.02097645 -0.0052644014 4283245602
1.6611454 -0.03113394 -0.0051890127 4282984483
1.6669196 -0.04147093 -0.0053397939 4283050022
1.6826214 -0.052182887 -0.0057418756 4283050025
1.8121423 -0.067241535 -0.0090087876 4294966519
4.546453 0.84738904 -0.13685003 4286479234
4.5210781 0.81399 -0.13568702 4282861385
3.8014543 0.39878434 -0.10672485 4288913812
3.7511225 0.37025449 -0.10473651 4285295198
3.815017 0.35293218 -0.1070625 4289243555
3.5025008 0.3023898 -0.09520752 4293717226
2.6528747 0.196366 -0.063094012 4292664792
2.7028832 0.18339233 -0.064932287 4284440407
2.4645796 0.15207155 -0.055928499 4283978827
2.3517208 0.13064608 -0.051651701 4286278492
1.9991556 0.09881746 -0.038371116 4285688160
1.8170227 0.078676917 -0.031505734 4290489243
1.8154739 0.06745261 -0.031430699 4288843648
1.7739031 0.055019792 -0.029855035 4282198039
1.7392426 0.043272138 -0.02854199 4286272579
1.7284851 0.032396004 -0.028129309 4287652686
1.7106655 0.021566913 -0.027454026 4287718995
1.7067684 0.0110451 -0.027303964 4284360987
1.6908153 0.00057061436 -0.026703715 4283245600
1.6807941 -0.009743819 -0.026328556 4282852644
1.677705 -0.020020332 -0.026216008 4282918179
1.6775507 -0.030314159 -0.026216008 4282853411
1.675335 -0.040558018 -0.026140973 4283311141
1.6770524 -0.050898008 -0.026216008 4282919979
1.5808406 -0.057666697 -0.022614494 4280621849
1.5844505 -0.067536667 -0.022764556 4292532942
4.6913705 0.90559036 -0.20256349 4286547079
3.7009192 0.38896498 -0.14958943 4288786085
3.5631011 0.35234526 -0.14252956 4293587434
2.4960954 0.16935918 -0.088453948 4290623920
2.4322944 0.15001273 -0.085199408 4293582546
2.3533945 0.13061813 -0.081193805 4284830543
2.1047747 0.10374442 -0.0686763 4282725421
1.8210006 0.078401022 -0.054406352 4293383886
1.8034825 0.066551469 -0.053505093 4282592546
1.8208271 0.056017291 -0.054356284 4288843395
1.81914 0.04479339 -0.054256141 4288053614
1.7364997 0.032045003 -0.050100334 4287459675
1.6987145 0.020896383 -0.048197672 4287523412
1.6818326 0.01035647 -0.04734648 4283507226
1.6848606 3.8902508e-05 -0.047496691 4283114533
1.6698483 -0.010218071 -0.046745643 4282852392
1.6687553 -0.020452339 -0.046695575 4283180579
1.6656026 -0.030638246 -0.046545364 4283049763
1.660391 -0.040738661 -0.04629501 4282853413
1.661108 -0.05095578 -0.046345085 4283378477
1.5729318 -0.057975445 -0.041938923 4280555799
4.8504262 0.96487623 -0.27051306 4282533445
3.7606404 0.41718933 -0.19823594 4294376690
3.6559231 0.38289019 -0.19152983 4294046953
2.4357319 0.16487986 -0.11471985 4288188044
2.4028268 0.14785273 -0.11260867 4291080621
2.3668163 0.1310706 -0.1103112 4285158987
2.3695698 0.11664343 -0.11043538 4284764742
1.8297842 0.078909583 -0.07678058 4281998617
1.8033042 0.066690631 -0.075104043 4288054133
1.8256266 0.056296617 -0.076470107 4289107070
1.8279332 0.04514258 -0.076594293 4290157188
1.8152032 0.033687767 -0.075787075 4288903782
1.6996081 0.021136083 -0.068584204 4287125829
1.683737 0.010610146 -0.067590699 4284099613
1.6847684 0.00027866501 -0.067652792 4283310877
1.6877326 -0.010077453 -0.067839079 4282917926
1.686641 -0.020420682 -0.067776985 4283048995
1.6824924 -0.030695587 -0.067528605 4282983970
1.6832701 -0.041043147 -0.067590699 4282918436
1.6869769 -0.051493451 -0.067839079 4282917156
1.6736633 -0.061365157 -0.06703186 4279897869
4.9121675 1.0730547 -0.33805329 4293649377
5.0064535 1.0615301 -0.34475437 4291018427
4.9298491 1.0136993 -0.33842558 4288256920
3.6830132 0.40929347 -0.23932385 4292466130
3.6973562 0.38793969 -0.24021733 4290558386
2.376883 0.14615475 -0.14044547 4294965237
2.3090336 0.12773234 -0.13530797 4285095774
2.2918456 0.11267142 -0.13396776 4285753191
1.8551267 0.079570681 -0.10128131 4291276192
1.8107361 0.066510156 -0.097930767 4286008888
1.8091166 0.055336159 -0.097781859 4284692769
1.7964623 0.043909371 -0.09681391 4286864199
1.7398665 0.031808387 -0.092569895 4286075455
1.7001432 0.020620918 -0.08959163 4285942066
1.6892685 0.010115357 -0.088772602 4284098073
1.6843126 -0.00025270891 -0.088400327 4283179805
1.6832821 -0.010581877 -0.088325866 4282917926
1.6762053 -0.020828247 -0.087804668 4283048995
1.6760461 -0.031112859 -0.087804668 4283048993
1.6778176 -0.041444156 -0.087953575 4283310627
1.6705542 -0.051527947 -0.087432384 4283510063
1.583505 -0.058631252 -0.080954663 4279832076
6.3852644 -0.90478921 -0.44415393 4290625466
6.3874841 -0.94511765 -0.44474956 4289968308
5.0871511 1.1761731 -0.41650009 4291743689
4.7599006 1.0698127 -0.38669795 4282992191
5.0038686 1.0924157 -0.40783668 4284043339
5.0397153 1.0678852 -0.41043571 4287530115
4.9778628 1.0229101 -0.40437132 4286873729
6.4721775 0.83972222 -0.52999079 4289109913
6.5483966 0.80878204 -0.53622848 4288518292
6.5581837 0.76916653 -0.53666162 4285756784
3.6754785 0.40839732 -0.28403652 4288651159
3.8622065 0.40515125 -0.30015045 4289045917
6.5514016 0.64636636 -0.53492898 4286216818
6.5592122 0.60652226 -0.53527552 4285953906
6.5459375 0.56480932 -0.53380269 4287600017
2.2791011 0.1406561 -0.16101608 4294572529
2.137677 0.1187904 -0.1486274 4282858301
1.869706 0.092443869 -0.12523618 4281215277
1.8493366 0.080069229 -0.12341686 4294833389
1.8268951 0.067874521 -0.12142428 4288578414
1.8193109 0.056418281 -0.1207312 4284101923
1.8136474 0.045106795 -0.1202114 4284562987
1.7909803 0.033553351 -0.11821882 4283445020
1.7323788 0.021835761 -0.11310739 4285416755
1.7145482 0.011093686 -0.11154798 4285019693
1.7056179 0.00057222904 -0.11076828 4283114273
1.6916422 -0.0098091979 -0.1095554 4282852646
1.6875654 -0.020140268 -0.10920886 4282917924
1.6844218 -0.03043991 -0.10894895 4283048995
1.6861954 -0.040823437 -0.10912222 4282591014
1.686909 -0.051199418 -0.10920886 4282919214
1.6208555 -0.059136156 -0.10349102 4279370756
6.5457015 -0.80622131 -0.53596854 4287529326
6.4013238 -0.82833493 -0.52375317 4289965987
6.2549529 -0.84843975 -0.51136446 4294441451
6.2989459 -0.89380455 -0.51569617 4284832318
6.2972856 -0.93302161 -0.51604271 4282465835
6.319994 -0.97605485 -0.5185551 4292269770
6.3414268 -1.0192435 -0.52098083 4292928212
6.3370194 -1.058463 -0.52115411 4291217846
6.3480735 -1.1003901 -0.52271354 4290824898
6.3578715 -1.1423163 -0.52418631 4291089869
6.3693519 -1.1847686 -0.52583236 4289774779
4.4784026 1.0948306 -0.42079479 4293124064
4.4879403 1.0680228 -0.42109174 4286609526
5.0275755 1.1640375 -0.47552657 4282202162
5.0297699 1.1320734 -0.47503167 4291149243
5.0560627 1.1054453 -0.47701114 4283579714
5.0520434 1.0721263 -0.47592247 4288318868
4.977634 1.0244395 -0.46770775 4282074696
6.3538585 0.82675159 -0.59953898 4286609272
6.3785615 0.79019988 -0.60151845 4291214772
6.4613619 0.76024723 -0.60933727 4294109928
6.5104074 0.72555435 -0.61379099 4293648866
6.5266123 0.68684548 -0.61497867 4293190358
6.3564234 0.62949425 -0.59755951 4291085998
6.3879094 0.59306091 -0.60033077 4291875267
6.5738378 0.56969482 -0.61854166 4294506995
1.8222398 0.10087257 -0.14377104 4281543211
1.8427017 0.090680458 -0.14575048 4294571249
1.8462058 0.079502478 -0.1460474 4293189067
1.7989281 0.066380434 -0.14129673 4282655759
1.7823935 0.054810088 -0.13961419 4283380260
1.8274609 0.045003656 -0.14406796 4285421383
1.7530845 0.032362271 -0.13664502 4284631099
1.732355 0.021333456 -0.13456661 4287787108
1.7244928 0.010648949 -0.13377482 4283840308
1.7115895 5.8145961e-05 -0.13248818 4281211156
1.7006117 -0.010384687 -0.13139948 4281606688
1.6965359 -0.020773269 -0.13100359 4281868067
1.6904068 -0.031077027 -0.13040976 4281935142
1.6921741 -0.041495994 -0.13060771 4282000674
1.693877 -0.051937811 -0.13080566 4282593581
6.7267613 -0.28542548 -0.63190293 4293914332
6.7069926 -0.32582873 -0.63012147 4293256918
6.6184235 -0.36225978 -0.62151086 4292927955
6.7034826 -0.40816963 -0.63022041 4290493871
6.6849666 -0.44823137 -0.6286369 4287073149
6.6106343 -0.4840219 -0.62151086 4288455066
6.7077293 -0.53251117 -0.6315071 4288520859
6.5932894 -0.5641768 -0.62042218 4289771178
6.7155538 -0.61614639 -0.63299167 4292402381
6.4275842 -0.74924892 -0.60587323 4292401360
6.3596535 -0.78092337 -0.59953898 4288385936
6.2718391 -0.8092497 -0.59122533 4280753438
6.2598524 -0.84678519 -0.59053248 4294636271
6.2574954 -0.88559681 -0.59082943 4293056976
6.2411151 -0.92237705 -0.58974069 4292595398
6.2323871 -0.96020049 -0.5894438 4287792760
6.2293262 -0.99889565 -0.58974069 4292268224
6.2270055 -1.0377529 -0.59013659 4290822061
6.1842399 -1.0696732 -0.5864746 4289112999
4.5362735 1.2255248 -0.48663127 4287070854
4.4591374 1.1753834 -0.47686779 4286149755
4.4134541 1.1056067 -0.46998894 4282527277
4.434638 1.0820378 -0.47165316 4285949026
4.4547305 1.0580211 -0.47320646 4287398528
4.5056825 1.0409544 -0.47831011 4283848017
5.0745058 1.1069063 -0.54188365 4284176982
5.0491171 1.0689584 -0.53822231 4294967293
5.2093992 1.0695257 -0.55575222 4291809229
6.3903656 0.86788225 -0.68201172 4294309614
6.2221055 0.80619067 -0.66248477 4288519571
6.3028855 0.7773599 -0.67102778 4285887600
3.5979812 0.42152542 -0.36647394 4288583315
6.4881134 0.67920673 -0.69033283 4287993478
6.2142367 0.61202902 -0.65915632 4287402113
6.3772049 0.58858323 -0.677019 4292271320
6.5113983 0.56068915 -0.69166422 4293058772
6.5117435 0.52048796 -0.69133139 4294372309
6.5237355 0.48118028 -0.69232994 4292462264
6.5384631 0.44194591 -0.69366127 4290750876
1.9036397 0.11721729 -0.17497668 4278847232
6.5056868 0.3595936 -0.68944526 4292924604
2.0300066 0.099984042 -0.1889562 4294377471
2.0524259 0.088463657 -0.19139707 4294965238
1.8860799 0.069734022 -0.17275771 4287790193
1.8209105 0.056152195 -0.16543511 4285485885
1.8301625 0.045197167 -0.16643363 4285617471
1.8155006 0.033693228 -0.16476941 4286340424
1.7262356 0.021461122 -0.15478402 4286011459
1.7054647 0.010742045 -0.15245411 4284038447
1.6995356 0.00027769851 -0.15178841 4281870112
1.7054681 -0.010187439 -0.15245411 4281608744
1.7043798 -0.020639542 -0.15234315 4281608487
1.6962718 -0.030950168 -0.15145558 4281608232
1.7010175 -0.041479982 -0.15201032 4281936682
1.7017243 -0.051947001 -0.15212128 4281805864
1.7162707 -0.062937282 -0.1537855 4278584576
6.5652089 -0.28220007 -0.69565839 4286872965
6.5822134 -0.32340586 -0.69776642 4286938241
6.5404129 -0.36159071 -0.69332844 4280494377
6.5569186 -0.40287426 -0.69543648 4285887360
6.5503569 -0.4428308 -0.69499266 4290424755
6.5385957 -0.48235613 -0.69399416 4294699244
6.5176811 -0.5210405 -0.69199705 4283715914
6.5173326 -0.56127846 -0.69232994 4293188304
6.504859 -0.60043484 -0.69133139 4292068275
6.4832497 -0.63858205 -0.68933433 4291605407
6.4436269 -0.67462289 -0.68534017 4291405199
6.4680104 -0.7173261 -0.68855768 4294962139
6.4634881 -0.75699955 -0.68855768 4281606427
4.67837 -0.57694089 -0.4882955 4283185969
4.6668572 -0.60461384 -0.48740786 4282921259
4.6364708 -0.62962472 -0.48441225 4288446838
4.6492467 -0.66043925 -0.48629838 4284038962
4.6087341 -0.68355614 -0.48219329 4280551680
4.5828457 -0.70847976 -0.47975242 4286343265
4.5617318 -0.73390126 -0.47786629 4293451225
6.1509614 -1.0284753 -0.65826869 4290163379
4.9039702 -0.97539741 -0.52024865 4293252550
4.8920517 -1.0042697 -0.51958299 4288385667
4.8712134 -1.0311793 -0.51791877 4282662967
4.8813014 -1.0646508 -0.51980489 4291809740
4.4750018 1.2094588 -0.53678995 4284966761
4.2616463 1.1237226 -0.50848114 4286082930
4.2569284 1.0945837 -0.50700414 4286082669
4.3251686 1.0838985 -0.51488143 4284963930
4.3857231 1.0705317 -0.52177399 4283517771
4.4501371 1.0573808 -0.52915889 4285690741
5.0583148 1.1040938 -0.6039927 4281411114
5.0533442 1.070565 -0.6025157 4285096553
5.2765851 1.0841238 -0.62996298 4285493879
6.2615762 0.89077532 -0.74627531 4287073149
6.0397782 0.82140225 -0.71784341 4289768858
6.0279737 0.78215337 -0.71575105 4286873198
6.2562289 0.77281052 -0.74369061 4280490263
6.3190045 0.74124062 -0.75095242 4279832846
6.3342829 0.70366126 -0.75230634 4283585609
6.0660796 0.63616145 -0.71833575 4288390287
6.048142 0.59678066 -0.71562797 4279902489
6.3797598 0.5900622 -0.75649112 4282402388
6.4406052 0.55586529 -0.76362985 4282270550
6.4498301 0.51681262 -0.76436836 4283058010
6.4706936 0.47854823 -0.76658386 4283193456
6.4546957 0.4375571 -0.76424527 4282867060
6.4939079 0.4002088 -0.7687993 4282931816
6.4893055 0.35996941 -0.76793772 4281027424
6.509233 0.32102814 -0.77015322 4282342272
1.9067154 0.081485391 -0.19856101 4294965493
1.836768 0.067164913 -0.1898222 4288120961
1.8232586 0.055462122 -0.18809906 4285552191
1.8543196 0.045040172 -0.19191459 4286143815
1.8109031 0.032841504 -0.186499 4286209606
1.7068772 0.020412035 -0.1735754 4285946436
1.6742221 0.0097253583 -0.1695137 4283381547
1.6881438 -0.00054250483 -0.17123684 4281739044
1.686124 -0.010889308 -0.17099068 4281609004
1.6860255 -0.021234963 -0.17099068 4281806123
1.6858633 -0.031579822 -0.17099068 4282200624
1.6886141 -0.041995447 -0.17135993 4282133548
1.6893165 -0.052385874 -0.17148301 4281674280
6.5012727 -0.27816504 -0.76892239 4280625474
6.4211373 -0.31423303 -0.7591989 4294375167
6.4220614 -0.35378972 -0.75956815 4281418313
6.4405713 -0.39445832 -0.76215291 4279380021
6.4449611 -0.43443543 -0.76301444 4280363829
6.4471221 -0.474336 -0.76362985 4278718752
6.4480476 -0.51420075 -0.76412219 4278722351
6.4536695 -0.55451852 -0.76522994 4278723641
6.4580517 -0.59483379 -0.76621461 4281486686
6.477984 -0.63677412 -0.76916856 4283260791
6.4611235 -0.67517185 -0.76756847 4282931561
6.4312124 -0.71196932 -0.76436836 4281281838
6.3902526 -0.74715954 -0.75981432 4281672222
4.6953254 -0.57852268 -0.54860586 4283054386
4.6670814 -0.6041429 -0.54552877 4283119406
4.6416516 -0.62983793 -0.54282099 4284105523
4.6200128 -0.65580064 -0.54060555 4283973417
4.5952859 -0.68108594 -0.53802079 4282988333
4.5733662 -0.70654637 -0.53580534 4282791213
4.5611057 -0.73333639 -0.53482068 4281542690
4.5232391 -0.75575697 -0.53063589 4282596153
4.560564 -0.79077667 -0.53592843 4293647836
4.748054 -0.85327822 -0.56017554 4283711027
4.7798057 -0.88928455 -0.56485265 4281869074
4.7635388 -0.91653615 -0.56349874 4285817432
4.798708 -0.9538638 -0.56866819 4282594612
4.797626 -0.98428619 -0.5692836 4282002992
4.7711058 -1.0093967 -0.56669885 4278584579
4.8831234 -1.0644106 -0.58171487 4292796637
4.0669456 1.1263536 -0.53748626 4289701547
4.0900407 1.1057727 -0.53978461 4283515204
4.093874 1.079898 -0.539379 4286344051
4.0985036 1.0542647 -0.53910863 4284703076
4.3999004 1.074376 -0.57966763 4288322713
5.0541644 1.103392 -0.66754556 4285097314
5.056962 1.0715382 -0.66700476 4284965732
5.3458729 1.0985041 -0.70634705 4293124578
6.0779753 1.0557036 -0.80341834 4285691244
6.1058378 1.0219871 -0.80639267 4287464313
6.1364484 0.98844081 -0.80977261 4286804325
6.1590443 0.95334518 -0.81207091 4292395439
6.1157737 0.9082616 -0.80531108 4292396718
6.1251554 0.87127674 -0.80585188 4293913039
5.9035926 0.80284959 -0.77462143 4288321924
5.938868 0.77056086 -0.77881253 4290821297
3.6267018 0.44810176 -0.46028888 4279568132
6.2982097 0.73869127 -0.82694256 4280490264
6.2937603 0.6990484 -0.82572579 4288454291
5.9027767 0.61900491 -0.77151191 4289640873
5.9814029 0.59016359 -0.78178686 4281022529
6.3312135 0.58545291 -0.82924092 4281155415
6.3119822 0.54463661 -0.8261314 4285362556
6.3231063 0.50652921 -0.82721299 4282471790
6.3478341 0.46932781 -0.83018732 4281555326
6.3664112 0.43144032 -0.83235043 4282278012
6.3709168 0.39249036 -0.83262086 4282804613
6.3009858 0.34939164 -0.82275146 4282933103
6.3000422 0.31057677 -0.82234591 4294243310
6.2671824 0.27042177 -0.81761402 4294569940
1.8279307 0.06791278 -0.21125637 4288578669
1.8194 0.056421023 -0.21003959 4285813051
1.8345696 0.045622692 -0.21206753 4286142788
1.831843 0.034310084 -0.21166195 4286406469
1.7299726 0.021805966 -0.19773668 4285815363
1.6775614 0.010862701 -0.19057125 4283841328
1.6914679 0.00057068554 -0.19246401 4281738274
1.684504 -0.0097661782 -0.19151764 4281871667
1.6863939 -0.020126017 -0.19178802 4282002222
1.679304 -0.030346252 -0.19084165 4282265647
1.6751243 -0.040552862 -0.19030087 4282069808
1.6768246 -0.050891038 -0.19057125 4281937709
6.2405472 -0.26713705 -0.81396371 4294901502
6.2823343 -0.30755767 -0.81991237 4293978585
6.0191498 -0.33169031 -0.7842204 4288123519
5.9912877 -0.36703998 -0.78070527 4288719003
6.2756085 -0.42314282 -0.81991237 4291683548
6.2215109 -0.45785663 -0.81288213 4291551962
6.2501903 -0.49854544 -0.81720841 4290892231
6.2529359 -0.53739595 -0.81801957 4289444785
6.2485347 -0.5756622 -0.81788439 4290301897
6.2527728 -0.61476767 -0.81896597 4290630608
6.2478981 -0.65301937 -0.81883079 4291419350
6.243773 -0.69134349 -0.81883079 4283717971
4.7317643 -0.55324191 -0.6117093 4282922546
4.71943 -0.58117443 -0.61049253 4282528811
4.7020187 -0.60834044 -0.60859978 4282529071
4.6864157 -0.63558114 -0.6069774 4287069306
4.6804652 -0.66404599 -0.60670698 4287859082
4.6125956 -0.68330926 -0.59791923 4282331430
4.5799198 -0.70721143 -0.59399849 4282265639
4.5588632 -0.73262602 -0.59170014 4282134827
4.5337596 -0.75715572 -0.58886105 4281213986
4.517313 -0.78292871 -0.58723867 4284176206
4.6382241 -0.83324182 -0.60467905 4287791481
4.7206931 -0.87799853 -0.61684674 4281607969
4.765811 -0.91668344 -0.62387699 4281742389
5.9593 -1.184309 -0.79070985 4287198069
4.8046741 -0.9854542 -0.63090724 4283053621
4.8140473 -1.0181981 -0.63307035 4279242760
5.9926395 -1.3060404 -0.79855126 4291940807
5.990314 -1.3440878 -0.79936242 4287664264
4.0337696 1.1441458 -0.58586073 4287137928
3.9044178 1.0815753 -0.56479806 4284568643
4.1286578 1.1165291 -0.59838051 4282791214
4.1641197 1.0987533 -0.6027993 4285819249
4.0960732 1.0539367 -0.59131056 4287071626
4.3067975 1.0800858 -0.62268364 4288058771
5.0682578 1.1398188 -0.73506707 4279703319
5.0239449 1.0974995 -0.72726065 4287269514
5.0421953 1.0691171 -0.72902811 4281151278
5.4448895 1.1197294 -0.7892704 4287204748
5.7940617 1.1546016 -0.84126431 4288388504
5.9156327 1.1411574 -0.85864466 4289177501
5.9303021 1.1062909 -0.85982305 4287200364
5.9642329 1.0747994 -0.86394721 4293777346
5.9005561 1.02597 -0.85334218 4292788655
5.972096 1.0007099 -0.86321074 4293247409
6.0044875 0.96830374 -0.86718762 4283380779
6.0572309 0.93872255 -0.87425762 4281210641
6.095161 0.90634537 -0.8791182 4279698689
5.782373 0.82354009 -0.83124846 4284177752
5.7579169 0.78403521 -0.82682973 4290361021
3.5812669 0.46483797 -0.49925336 4283519305
6.1312737 0.75843537 -0.88147485 4282269274
6.1397414 0.72126263 -0.88206404 4282403930
5.7724743 0.64216405 -0.82638782 4283390799
5.7546659 0.60445529 -0.82314742 4280296745
6.0909519 0.6020838 -0.87293196 4282270814
6.1615019 0.57091731 -0.8829478 4286416020
6.1353264 0.53053832 -0.87852907 4282995299
6.1384668 0.49288264 -0.87852907 4282801782
6.1196752 0.45359582 -0.87528867 4282409857
6.1243172 0.41617221 -0.87558323 4282936199
6.1060243 0.37730125 -0.87249011 4284577918
6.1516767 0.3422541 -0.87897092 4291739049
6.1368666 0.30366746 -0.87646699 4288254067
6.1326857 0.26574859 -0.87558323 4291804318
1.8376136 0.067514785 -0.23530689 4286343772
1.8192097 0.055651415 -0.23250836 4284104492
1.8373148 0.044934537 -0.23515961 4286077253
1.813822 0.033210251 -0.2316246 4286603084
1.7279476 0.020977315 -0.21881023 4286406736
1.673645 0.01001097 -0.21070921 4282723625
1.6825768 -0.0002536556 -0.21203482 4282066467
1.6746309 -0.010533512 -0.2108565 4282198574
1.6765127 -0.020831851 -0.21115108 4282067758
1.6615194 -0.03085335 -0.20894171 4282199603
1.6632763 -0.041095126 -0.20923629 4281610285
1.6590383 -0.051180821 -0.20864713 4281478693
6.1081676 -0.260351 -0.87190092 4291942357
5.6865854 -0.27742782 -0.80930203 4289440675
5.8141541 -0.31939599 -0.82859719 4288714893
5.7765431 -0.35290089 -0.8232947 4290164394
5.9449987 -0.39978588 -0.84877616 4294111709
6.0539031 -0.44441748 -0.8654201 4294835948
6.0658522 -0.48272929 -0.86762947 4293717471
5.9928064 -0.51395255 -0.85717177 4289637282
5.9905248 -0.5508045 -0.85731906 4290627002
6.0500326 -0.59372157 -0.86674571 4290364857
6.0836592 -0.63472575 -0.87234282 4290496441
6.0747342 -0.67150003 -0.87160635 4294507244
6.0459385 -0.7058984 -0.86792403 4281940271
4.7485671 -0.5842309 -0.67394108 4282068005
4.6919212 -0.60652226 -0.66598737 4282661171
4.6802702 -0.63423938 -0.66480899 4282662199
4.6273241 -0.65601546 -0.65744442 4287597191
4.6124482 -0.6828053 -0.65582424 4280555797
4.5876427 -0.70793134 -0.65273112 4281740071
4.5461016 -0.73011672 -0.64713401 4281674276
4.5278769 -0.75572121 -0.64507192 4281674278
4.5163326 -0.78230953 -0.64404088 4282859576
4.5124211 -0.81018102 -0.64418823 4282003752
4.7057514 -0.87467819 -0.6742357 4278586127
5.9416876 -1.141853 -0.86247426 4279374615
5.8637452 -1.1642413 -0.851722 4287859069
5.8283906 -1.1944456 -0.84745055 4284697407
4.7999668 -1.0146229 -0.69205797 4290290590
5.8132939 -1.2658789 -0.84745055 4288843399
5.7021432 -1.278393 -0.83169031 4286671712
5.7626243 -1.329126 -0.84214807 4290880919
5.7639852 -1.36674 -0.84362096 4291340441
5.7602954 -1.4032509 -0.84435743 4292986549
5.7784448 -1.4452835 -0.8484816 4291145887
5.7531805 -1.4765354 -0.8459776 4287793791
3.8099513 1.105 -0.60093731 4294896371
3.8489552 1.0907506 -0.60634983 4283907137
4.1822925 1.1299243 -0.65983832 4281541665
4.1156378 1.0848715 -0.64758056 4286411634
4.1709828 1.0721282 -0.65569931 4287003771
4.8261085 1.0838057 -0.75885576 4280687383
4.990859 1.0886668 -0.78496325 4285753444
5.00807 1.0602716 -0.78671438 4284634196
5.7272272 1.1758001 -0.90403885 4288842124
5.7546682 1.1446797 -0.90738189 4288776581
5.7509193 1.1072956 -0.90563077 4290026895
5.7401342 1.0687363 -0.90276533 4288248164
5.738811 1.0320978 -0.90149176 4291537559
5.7518449 0.9980467 -0.90260613 4294961883
5.7578607 0.9627353 -0.90260613 4294831574
5.7685332 0.92817146 -0.90340209 4294698456
5.7741194 0.89275891 -0.90340209 4294567386
5.7570281 0.85398245 -0.8997407 4286280297
5.6155424 0.79782188 -0.87586188 4280163870
5.6623979 0.76906091 -0.88270712 4282465083
5.6954031 0.73797971 -0.88732368 4283581505
5.7537155 0.70966268 -0.89607924 4280818191
5.7461948 0.67296791 -0.89416897 4282794804
5.652092 0.62682199 -0.87824976 4282137911
5.6577954 0.5923351 -0.87856811 4282070838
5.7350111 0.56486112 -0.89050752 4285884260
5.740335 0.52984244 -0.89082593 4282461223
5.7483959 0.49503359 -0.89162189 4290290590
5.7621503 0.46061742 -0.89337301 4290423193
5.7638836 0.42518032 -0.89321381 4291870388
5.7653995 0.38973925 -0.8930546 4291539881
5.7262959 0.35181618 -0.88636857 4291076242
5.7470756 0.31770778 -0.88939321 4286864967
5.7390561 0.28195462 -0.88780129 4286010183
5.7436371 0.24686211 -0.88827884 4282064147
1.8164781 0.067174993 -0.25437626 4287798430
1.8227768 0.056209344 -0.25533143 4281209863
1.828022 0.045144755 -0.25612739 4285551425
1.806549 0.033529013 -0.25262517 4286142019
1.723798 0.021431368 -0.23925306 4285878333
1.6913184 0.010656169 -0.23399971 4282657056
1.6972755 0.00027784641 -0.23495488 4281540895
1.7031687 -0.010173179 -0.23591001 4281608236
1.7010998 -0.020599073 -0.23559164 4281805872
1.6969931 -0.030963492 -0.23495488 4282199854
1.7017058 -0.041496925 -0.23575084 4281740323
1.7260888 -0.052696325 -0.23973061 4281477161
5.6933355 -0.24467158 -0.88016003 4289894525
5.7331405 -0.28163791 -0.88684613 4289167975
5.7115898 -0.31571937 -0.88366228 4289956722
5.6996913 -0.35015306 -0.88207036 4288842869
5.6826611 -0.38411939 -0.87968248 4284498998
5.690043 -0.41970724 -0.8812744 4290223241
5.6932645 -0.45508516 -0.88222957 4291274638
5.6933165 -0.49026409 -0.88270712 4291468931
5.689218 -0.52509761 -0.88254791 4292191880
5.6849065 -0.55989927 -0.88238877 4292979850
5.6784177 -0.5944621 -0.88191116 4292847490
5.6933069 -0.63136178 -0.8849358 4290219381
5.6942286 -0.66685784 -0.88573176 4282065687
5.6439781 -0.69610143 -0.87824976 4281344286
4.7261429 -0.6122995 -0.72972363 4281936419
4.6753407 -0.63490647 -0.72208238 4282725935
4.6596274 -0.66191471 -0.72017211 4282593835
4.624229 -0.68585569 -0.71507794 4281280031
4.586762 -0.70908546 -0.70966542 4281937959
4.5589314 -0.73345041 -0.70584482 4281937959
4.5475292 -0.76026964 -0.70473045 4282069545
4.5320787 -0.78630114 -0.70297939 4282726196
4.5300841 -0.81461906 -0.70345694 4282464810
4.7142587 -0.87764978 -0.73449939 4284107073
5.6491308 -1.0876788 -0.8889156 4281539598
5.6375098 -1.1213573 -0.88811964 4291798674
5.6343913 -1.1567218 -0.88875645 4291732353
5.6339488 -1.1927037 -0.88987076 4292260244
5.6226659 -1.2264087 -0.88923401 4281406991
5.0284185 -1.1291162 -0.7922861 4293711814
5.5937262 -1.2922033 -0.88700533 4291469450
5.6020207 -1.3303803 -0.88971156 4289167724
5.6167707 -1.3703463 -0.89353222 4290483843
5.6082568 -1.4047843 -0.89353222 4289957751
5.5909262 -1.4369571 -0.89209944 4288643446
5.6087332 -1.4782823 -0.89655685 4288385936
3.674603 1.090366 -0.62590969 4290821546
3.6783855 1.0669743 -0.62539703 4281805864
4.0858116 1.1581552 -0.69768661 4284769639
4.0871434 1.1314844 -0.69666123 4279769625
4.1234932 1.1143615 -0.70195907 4287597966
4.141685 1.092057 -0.70400983 4284308316
4.1254077 1.0607285 -0.69990826 4282070840
4.625421 1.0990769 -0.78569877 4288452751
4.7482285 1.0975527 -0.80637735 4282133798
5.0432544 1.1332678 -0.85764658 4282264616
5.0318241 1.0983053 -0.85439956 4284436553
5.0471435 1.0692497 -0.8559376 4281146389
5.5988827 1.1504158 -0.95249462 4286538079
5.6174312 1.1183509 -0.95454544 4282984483
5.6154804 1.0821822 -0.95300734 4285022777
5.6181407 1.046983 -0.95232373 4285286974
5.6234894 1.0123163 -0.95215285 4285419071
5.6305656 0.97796094 -0.95232373 4286339916
5.6316018 0.94257981 -0.95146924 4286865482
5.6431155 0.90894854 -0.95249462 4287587663
5.6242452 0.87053317 -0.94822222 4286668879
5.6246076 0.83528239 -0.94736773 4280618249
5.6296272 0.80075473 -0.94736773 4290818478
3.5295832 0.47952873 -0.57891291 4286740599
5.6253505 0.72983265 -0.94497514 4283708720
5.6199446 0.69409263 -0.94326621 4286735963
5.6152906 0.65856147 -0.94172812 4281539604
5.6162882 0.62376744 -0.9412154 4281934879
5.6160898 0.58888298 -0.94053185 4281802012
5.6117535 0.55363679 -0.93916464 4286736990
5.6209316 0.51973879 -0.94019002 4287195482
5.5916209 0.48243791 -0.9345504 4287655004
5.6052794 0.44898689 -0.93643028 4287720025
5.6030159 0.41422087 -0.93557578 4285745207
5.6064348 0.37990046 -0.93574667 4287915606
5.6086602 0.34549284 -0.93574667 4285876023
5.5988698 0.31041527 -0.93369591 4284166176
5.603621 0.27620158 -0.93420863 4283969572
5.5973358 0.24147181 -0.93284142 4284760630
1.8375103 0.06719254 -0.28001335 4287723609
1.8221312 0.055427097 -0.27727899 4281472512
1.8342568 0.044540212 -0.27932975 4282788129
1.8374507 0.033340093 -0.27984244 4282196254
1.7381145 0.020806981 -0.2625818 4285223234
1.7165335 0.010000676 -0.25882205 4283184168
1.7067097 -0.00053561904 -0.2571131 4281409825
1.7076597 -0.011013464 -0.25728399 4281412399
1.7095304 -0.02151471 -0.25762579 4281871404
1.699515 -0.031826079 -0.2559168 4282003243
1.6953477 -0.04215825 -0.25523323 4281740073
1.6989965 -0.052679345 -0.2559168 4281607718
5.583632 -0.23906776 -0.93044889 4284368705
5.5869803 -0.27356368 -0.93130338 4284038457
5.5999537 -0.30864987 -0.9338668 4285288267
5.5969715 -0.34294468 -0.93369591 4284037945
5.5809989 -0.37635541 -0.93130338 4286472788
5.6002026 -0.41217926 -0.93506312 4283840807
5.6034613 -0.44700256 -0.9360885 4282918676
5.5957046 -0.48095548 -0.93523401 4283904803
5.5946107 -0.51546139 -0.93557578 4284496170
5.5893812 -0.54958719 -0.93523401 4281732612
5.5839443 -0.58366817 -0.93489224 4283112460
4.9427161 -0.54745698 -0.82363802 4284757542
4.8815241 -0.57103419 -0.81355506 4284300594
4.8339219 -0.59556478 -0.80586469 4294965746
4.7979302 -0.62104785 -0.80022508 4283450171
4.6788168 -0.63487154 -0.78005916 4282660397
4.6611757 -0.66163313 -0.77766663 4282792240
4.6414337 -0.68791372 -0.77493227 4283185971
4.6147285 -0.71292573 -0.77100158 4282922799
4.6092939 -0.74107158 -0.77083069 4282528042
4.6027164 -0.76901549 -0.77048892 4282396456
4.5765524 -0.79354489 -0.76672918 4281803814
4.572567 -0.82178521 -0.76690006 4282198574
4.6953087 -0.87358487 -0.78945851 4285225050
5.5858455 -1.0745479 -0.9477095 4281474851
5.5801134 -1.1089938 -0.94788039 4281999395
5.5799603 -1.1445962 -0.94907671 4282589472
5.5901847 -1.1824794 -0.95215285 4282720545
5.602078 -1.2209502 -0.95557082 4281145114
5.5983267 -1.2561631 -0.95625436 4280687385
5.6020346 -1.2931471 -0.95830518 4280818202
5.5613985 -1.319768 -0.95249462 4293580495
5.539794 -1.3506025 -0.95010209 4292981406
5.4358172 -1.3606635 -0.93301237 4290089590
5.4273658 -1.3939915 -0.93301237 4290682501
5.4187102 -1.427267 -0.93301237 4290482565
5.3936791 -1.4561263 -0.93010706 4292197041
5.4235806 -1.499954 -0.93711388 4286806904
4.0746565 -1.1541539 -0.69563586 4281672998
4.0788546 -1.1824228 -0.69768661 4285156679
4.0573516 -1.2032297 -0.69512314 4286537301
4.035748 -1.2238175 -0.69255972 4280490004
4.0507517 -1.2555521 -0.69666123 4285626229
4.02982 -1.2762222 -0.69426864 4289904057
3.5561082 1.0795608 -0.65301943 4285424477
3.5833998 1.063874 -0.65704751 4290027930
4.1324697 1.171842 -0.76086152 4285689704
4.1140008 1.1393813 -0.75591803 4281543205
4.1313543 1.1169382 -0.75793201 4282991681
4.1400309 1.0920689 -0.75829822 4282795077
4.1599832 1.0700731 -0.76086152 4282862925
4.56533 1.1147559 -0.83611298 4286807924
5.3525615 1.2721639 -0.9855172 4286872428
5.1744452 1.1963488 -0.94999713 4280819221
5.0627494 1.1378542 -0.92729354 4280623132
5.0869241 1.1105413 -0.9305892 4284635214
5.0917196 1.0789002 -0.93022305 4280422404
5.566256 1.1437734 -1.0192065 4281473558
5.589561 1.1128603 -1.0223191 4280751379
5.5866299 1.0766828 -1.0204881 4280028426
5.5960312 1.0429237 -1.0210375 4280225805
5.6458645 1.0164027 -1.0292767 4280620310
5.6607127 0.98325479 -1.0309246 4280227092
5.7112412 0.95596546 -1.0393468 4280491557
5.7131171 0.92027891 -1.0386144 4280557874
5.7108841 0.88400394 -1.0371497 4279373600
5.7103662 0.8480798 -1.0360512 4288519591
5.7368751 0.81607014 -1.0400792 4279046426
5.7086539 0.77635205 -1.033854 4280558903
5.7074604 0.74055117 -1.0327555 4280427577
5.7031155 0.70443296 -1.0311077 4280362553
5.7063537 0.66931152 -1.0309246 4280296246
5.7132854 0.63461077 -1.0314738 4279703327
5.709249 0.59872305 -1.030009 4288584863
5.7098804 0.56339109 -1.0294597 4281216570
5.7142086 0.52843583 -1.0296428 4280692031
5.6869802 0.49074602 -1.0239669 4280624947
5.6810646 0.45513615 -1.0223191 4279834646
5.6955156 0.42113838 -1.0245162 4285421896
5.6872029 0.3854529 -1.0225022 4282196758
5.690443 0.35060999 -1.0226853 4279896322
5.6463518 0.31313217 -1.0140799 4281277461
1.8511361 0.091529541 -0.30605727 4284761393
1.8536272 0.080254108 -0.30642349 4280488192
1.8314891 0.06804423 -0.30221233 4290025349
1.8230283 0.05653277 -0.30056447 4291142023
1.8203925 0.04527311 -0.30001521 4292392856
1.7773871 0.033301622 -0.29195908 4291801493
1.7519997 0.022078697 -0.28719866 4289304199
1.7324406 0.011205425 -0.28353679 4282264356
1.7167472 0.00057344307 -0.28060728 4281936169
1.7177014 -0.0099662561 -0.28079039 4281542954
1.7156419 -0.020481773 -0.28042421 4281740580
1.7105693 -0.030918425 -0.27950874 4282134310
1.7123129 -0.041461736 -0.27987492 4281871657
1.7169394 -0.052117757 -0.28079039 4281476648
5.6999474 -0.24396229 -1.0234177 4280360749
5.6639757 -0.27724734 -1.0170094 4284110947
5.6425362 -0.31091249 -1.0133475 4284637543
5.6807532 -0.34799588 -1.0208544 4281742389
5.6520281 -0.38105842 -1.0159109 4283979866
5.6633091 -0.41674244 -1.0184741 4284966761
5.6792655 -0.45297039 -1.021953 4285690484
5.6802969 -0.4881461 -1.0226853 4285887861
5.6820898 -0.52344185 -1.0236008 4284703074
5.6689873 -0.55733407 -1.0217699 4283189317
5.6693716 -0.59251684 -1.0225022 4285426532
5.6763778 -0.62848306 -1.0245162 4285624689
5.6733913 -0.66341513 -1.0246993 4281086779
5.680922 -0.69965672 -1.0268965 4284110439
4.7425113 -0.61358267 -0.85149282 4280946705
4.7396312 -0.64280283 -0.85167593 4288905591
4.7209978 -0.66979992 -0.84892952 4281013514
4.695405 -0.6955837 -0.84490144 4280225803
4.6959062 -0.72513157 -0.84581691 4280555027
4.6777797 -0.75174648 -0.84325361 4280885022
4.6478677 -0.77622211 -0.83849317 4280951846
4.6091156 -0.79884762 -0.83208489 4280293916
4.565423 -0.82015723 -0.82476115 4279767574
4.5216446 -0.8409611 -0.81743741 4282859843
4.5135036 -0.86813229 -0.81688815 4282860094
4.5090561 -0.89600194 -0.81707126 4284044103
5.6783724 -1.1647241 -1.0404453 4284570710
5.6576538 -1.196695 -1.0378821 4284832855
5.5330191 -1.20584 -1.0155447 4283647298
5.505372 -1.2352461 -1.0116997 4289765536
5.4756579 -1.2639161 -1.0074885 4289831579
5.1091056 -1.2123475 -0.93882841 4281608988
5.1884851 -1.2648685 -0.95548993 4281410580
5.4018755 -1.352075 -0.99796766 4292395188
5.38586 -1.383238 -0.99650282 4288710513
5.0264788 -1.3238416 -0.92894137 4285883726
4.9983301 -1.3492765 -0.92509639 4286541151
4.0594993 -1.1225374 -0.74529856 4285421393
4.0421305 -1.1444778 -0.74328452 4284438357
4.0321994 -1.1684374 -0.74273527 4283319101
4.0400343 -1.1976283 -0.74566478 4280556819
4.0486035 -1.2272446 -0.74877733 4286153844
3.4212995 1.0853417 -0.67270088 4294966519
3.4288311 1.0646197 -0.67289543 4285685341
3.4390528 1.0447025 -0.67367375 4281741614
4.1288233 1.1993371 -0.81357443 4284243036
4.1252723 1.1435961 -0.80987746 4280951066
4.1568274 1.1249312 -0.81493646 4284636763
4.1503749 1.0958947 -0.81221241 4284637542
4.1703186 1.0738358 -0.81493646 4285625202
4.4412961 1.1146749 -0.86902881 4284307022
5.316977 1.3000624 -1.0464828 4284632897
5.1483302 1.2253575 -1.0104861 4283053095
5.2790189 1.2223147 -1.0355865 4281738523
5.0845137 1.144408 -0.9945308 4282001185
5.1661801 1.1295472 -1.0097078 4284697922
5.4301519 1.1524569 -1.0618544 4281868310
5.4313569 1.1179287 -1.0606869 4282591265
5.4573522 1.0884227 -1.0645784 4282722338
5.4725952 1.0565917 -1.0663296 4282855215
5.4934382 1.0256963 -1.0692483 4281607464
5.6540723 1.0198604 -1.1003805 4280097576
5.6853485 0.98952657 -1.1054395 4280361776
5.7058225 0.95706022 -1.1083583 4280232518
5.7144928 0.9225015 -1.1089419 4280430928
5.7122917 0.88621604 -1.1073853 4283519590
5.7108307 0.85013694 -1.1060233 4280231481
5.7159395 0.81507999 -1.1060233 4280037451
5.7159734 0.77932882 -1.1050504 4279840078
5.7167573 0.7437346 -1.1042721 4279840847
5.7182927 0.70828092 -1.1036884 4279841360
5.7186341 0.67272156 -1.10291 4280169035
5.7158308 0.63685828 -1.1015481 4286811285
5.71768 0.601569 -1.1011589 4279837485
5.7212629 0.56647468 -1.1011589 4280038991
5.702168 0.52926928 -1.0966836 4280168783
5.722898 0.49579901 -1.100186 4278192413
5.7180109 0.4600437 -1.0986294 4285758334
5.6952929 0.42305553 -1.0935704 4285096791
5.7007184 0.38830251 -1.0941541 4282131741
5.701035 0.35319453 -1.093765 4283248941
1.8248578 0.10101918 -0.32324103 4291731079
1.8244638 0.089771323 -0.32304645 4286862659
1.8318398 0.0788747 -0.3244085 4282390026
1.8342497 0.067706868 -0.32479763 4283839788
1.8012968 0.055403844 -0.31818202 4285289805
1.7741469 0.043656461 -0.31273389 4283051303
1.8185132 0.033613928 -0.32148984 4287984741
1.7480674 0.0215376 -0.30748031 4283183138
1.7246258 0.010649861 -0.30281046 4282330912
1.7109264 5.7668542e-05 -0.30008641 4281542174
1.698143 -0.010371317 -0.29755691 4281739304
1.7029517 -0.020847386 -0.29852977 4281740071
1.7067145 -0.031365506 -0.29930809 4281936934
1.7192379 -0.042140879 -0.30183759 4281674280
1.7081621 -0.052365918 -0.29969725 4281607466
5.7068229 -0.2423263 -1.093765 4280361776
5.6905322 -0.2766268 -1.0908463 4279835431
5.629962 -0.30833191 -1.0791717 4284835181
5.6710439 -0.34548643 -1.087733 4285098347
5.6639237 -0.37994954 -1.0867602 4282926663
5.6653991 -0.41498142 -1.0875385 4285822068
5.682303 -0.45128492 -1.0914301 4285558896
5.6804042 -0.48622584 -1.0916246 4285887861
5.6743827 -0.52080262 -1.0910408 4285888374
5.664247 -0.55494213 -1.0896789 4285954167
5.6665888 -0.59029543 -1.0908463 4286019186
5.6628604 -0.62505388 -1.0908463 4287467154
5.6725588 -0.66137624 -1.0935704 4281153095
5.6878657 -0.69855738 -1.0974619 4280823867
4.7359204 -0.61136138 -0.90794414 4286870645
4.7184711 -0.63857061 -0.90522009 4283381297
4.6998959 -0.66545153 -0.90230143 4281081373
4.6695242 -0.69040984 -0.89704788 4280032545
4.6845894 -0.72203219 -0.9009394 4279966753
4.6694169 -0.74905622 -0.89879906 4280162841
4.630868 -0.77205592 -0.89198887 4281082913
4.5516176 -0.78759694 -0.87700647 4284700503
4.4849057 -0.80444306 -0.86455357 4283778884
4.4702411 -0.83015835 -0.86260778 4282659368
4.5026331 -0.86477721 -0.87019628 4283514677
4.5184102 -0.89658326 -0.87447697 4281081365
4.4849553 -0.91859037 -0.86883426 4281215269
4.4562001 -0.94123316 -0.86416441 4281281062
4.422544 -0.96251619 -0.85852164 4281938993
4.3916674 -0.9840644 -0.85346264 4281873199
4.36165 -1.0054902 -0.84859824 4280161811
4.3448987 -1.0297484 -0.8464579 4280290315
4.3127646 -1.05013 -0.84120435 4286606184
4.2948198 -1.0737211 -0.83886939 4289175191
5.0112429 -1.2853462 -0.98694229 4292201409
5.2650957 -1.3848804 -1.0406455 4293185219
5.2394509 -1.412568 -1.0371431 4294564049
5.2250118 -1.4431244 -1.0359757 4281405447
4.1031713 -1.1606812 -0.8065697 4284959809
4.0714736 -1.1787505 -0.80151069 4283842361
4.0707479 -1.2056583 -0.80287272 4281148445
3.3226559 1.0758965 -0.69711035 4293648590
3.3310604 1.05608 -0.69752306 4282331428
4.1115141 1.1932052 -0.86344856 4285624941
4.1178164 1.1676881 -0.86324215 4286479996
4.1352768 1.1452717 -0.86551231 4285756013
4.156395 1.1237057 -0.86860794 4287333500
4.1726732 1.1006762 -0.87067169 4286082660
4.1613431 1.0704226 -0.86675054 4286082660
4.1858659 1.0493883 -0.87067169 4284040255
5.138989 1.2547814 -1.0762211 4282263844
5.2313166 1.2433561 -1.0945885 4282790700
5.2188268 1.2066067 -1.0902547 4282396455
5.1020246 1.1466784 -1.0634259 4283842100
5.2867756 1.154156 -1.1018116 4283906861
5.2928009 1.1214924 -1.1016053 4283709221
5.3082085 1.0907673 -1.1034627 4283578407
5.3282366 1.0608501 -1.1063519 4283711795
5.4845309 1.0570128 -1.1385463 4281478190
5.5774865 1.0394689 -1.1571201 4280166966
5.5924263 1.0067862 -1.1589775 4279840069
5.616816 0.97563308 -1.1628987 4279906894
5.6439276 0.94470286 -1.1674389 4280628820
5.6602445 0.91176558 -1.169709 4289375947
5.6792703 0.87911242 -1.1725982 4279112239
5.7077856 0.84769678 -1.1775513 4279970637
5.7390356 0.8163774 -1.1831234 4279841107
