# .PCD v0.7 - Point Cloud Data file format
VERSION 0.7
FIELDS x y z rgb
SIZE 4 4 4 4
TYPE F F F U
COUNT 1 1 1 1
WIDTH 1096
HEIGHT 1
VIEWPOINT 0 0 0 1 0 0 0
POINTS 1096
DATA ascii
6.2490048 -0.84531987 -0.5894438 4294109674
6.2407451 -0.88322943 -0.58914685 4294833391
6.2420993 -0.92252237 -0.5898397 4290293672
6.2314034 -0.96004915 -0.5893448 4285886573
6.2096748 -0.99574822 -0.58776128 4288256920
6.2034478 -1.0338314 -0.58776128 4287468172
4.3923554 1.1866566 -0.46998894 4283779923
4.4600987 1.1756366 -0.47697872 4285689718
4.3556108 1.0911217 -0.46333206 4284107588
4.4520173 1.0862768 -0.47365028 4284109130
4.4498959 1.0568732 -0.47265172 4283650123
4.4737272 1.0335746 -0.47464877 4284242005
5.0599403 1.1037303 -0.54021943 4283190348
5.0442557 1.0679296 -0.53766757 4285756786
5.201611 1.0679274 -0.55486465 4284704098
6.2456007 0.84823048 -0.66570228 4294243815
6.1915522 0.80223382 -0.65904534 4288848518
6.2703357 0.77334738 -0.6673665 4280358937
3.6868191 0.43192363 -0.3764593 4282924094
6.4512272 0.71539152 -0.68667156 4278848772
6.3843279 0.66834825 -0.67868322 4287731327
6.1934667 0.6099847 -0.65682638 4286942582
6.4217377 0.59269065 -0.68201172 4294507504
6.4608998 0.55634379 -0.68600583 4292860110
6.5067902 0.52009237 -0.69077665 4287726458
6.5267086 0.48139942 -0.69266278 4291672498
6.4759946 0.43772727 -0.68667156 4288908664
6.5222044 0.40066168 -0.69155329 4289698441
6.5235486 0.36057982 -0.69144231 4290292381
2.0429108 0.10061714 -0.19039851 4288388488
2.0007944 0.086248033 -0.18562773 4294437327
1.8682032 0.069076754 -0.17076063 4284169772
1.8099835 0.055817571 -0.16421467 4283840819
1.8341366 0.045294464 -0.16687742 4284104500
1.7856909 0.033146385 -0.16144094 4284499000
1.7232543 0.021424729 -0.15445119 4285091650
1.7004956 0.01071188 -0.15189937 4282461476
1.6945665 0.00027802374 -0.15123367 4281016348
1.6965238 -0.010131971 -0.15145558 4280754465
1.6924548 -0.020492412 -0.15101179 4281016607
1.6793796 -0.030638078 -0.14956945 4281082401
1.6781664 -0.040917523 -0.1494585 4281147681
1.6818571 -0.051335994 -0.14990228 4281082403
6.5701737 -0.28241375 -0.69621313 4283648858
6.5683169 -0.32272226 -0.69621313 4283320153
6.5433898 -0.36175549 -0.69366127 4282991955
6.5529509 -0.40263021 -0.69499266 4282862941
6.5473819 -0.44262952 -0.69465983 4286411644
6.532649 -0.48191708 -0.69332844 4290029999
6.5236254 -0.52151603 -0.69266278 4282594359
6.5014901 -0.55991316 -0.69055474 4288910740
6.4910045 -0.59915513 -0.68977809 4288055934
6.4763265 -0.6378997 -0.68855768 4287725165
6.4436269 -0.67462289 -0.68534017 4288118376
6.4512186 -0.7154628 -0.68667156 4292329907
6.4911261 -0.76023817 -0.69166422 4282002214
4.6408892 -0.57231557 -0.48407942 4281673247
4.6294055 -0.59975857 -0.48319185 4283514683
4.6246533 -0.62801898 -0.48308086 4284303682
4.6049695 -0.65414584 -0.48130572 4282329114
4.6028357 -0.68268079 -0.48152763 4282723367
4.6024885 -0.71151811 -0.48197138 4285357141
4.5450516 -0.73121625 -0.47598016 4293452249
6.0931292 -1.0188017 -0.65172273 4290427570
4.5868435 -0.88307232 -0.48352468 4287005554
4.8454871 -0.96376038 -0.51359177 4288317302
4.865767 -0.99887156 -0.51658738 4288185978
4.8799639 -1.0330323 -0.51891726 4285426019
4.8900404 -1.0665574 -0.52080339 4287930267
4.4558425 1.2042755 -0.53432834 4284637283
4.2789178 1.1282816 -0.51069665 4290426289
4.2578893 1.0948311 -0.50712723 4283386947
4.3415322 1.0880039 -0.51697379 4283648328
4.3442698 1.0604018 -0.51648146 4283124555
4.4288969 1.0523282 -0.52645111 4285033065
5.0554061 1.1034583 -0.60362345 4282006072
5.045578 1.0689178 -0.60153103 4288256157
5.3028302 1.0895221 -0.63328618 4285294962
6.2559929 0.92917877 -0.74627531 4288850076
6.2998929 0.8962335 -0.75107551 4289836193
6.0328946 0.82046479 -0.71698183 4286875496
6.0260057 0.78189754 -0.71550488 4287465329
3.6196835 0.44663087 -0.41420045 4282072368
6.2716947 0.73568225 -0.74504453 4280096018
6.3115978 0.70113701 -0.74947548 4283386947
6.0236402 0.63170254 -0.71304321 4289640356
6.0323405 0.59521842 -0.71365863 4278454794
6.3777838 0.58987904 -0.75624496 4280955716
6.4356618 0.55543768 -0.76301444 4282203728
6.4498301 0.51681262 -0.76436836 4281349951
6.4825697 0.47942868 -0.7680608 4281878623
6.4586563 0.43782631 -0.76473761 4282143338
6.4840026 0.3995966 -0.76756847 4282143078
6.4793968 0.359418 -0.76670694 4280891738
6.492383 0.32019407 -0.7680608 4281287017
1.918613 0.082001142 -0.20003799 4288448890
1.8605691 0.068050392 -0.19277617 4283840811
1.8073879 0.054969177 -0.18612975 4283841330
1.8066993 0.043853488 -0.18600667 4284038962
1.7811365 0.03228246 -0.18280652 4284302130
1.724739 0.020637868 -0.17579088 4284565304
1.6920848 0.0098415893 -0.17172918 4282001697
1.6891361 -0.00054213678 -0.17135993 4280819482
1.7059716 -0.011003731 -0.17345232 4280623390
1.6870178 -0.021246772 -0.17111376 4281016610
1.6709797 -0.031311341 -0.16914445 4281018150
1.6707562 -0.04156369 -0.16914445 4281017637
1.6724535 -0.051874619 -0.16939062 4281280809
1.6492939 -0.061303958 -0.16655973 4278650629
6.414021 -0.27444756 -0.75809121 4281814373
6.2764192 -0.30717731 -0.741229 4284639869
6.2972074 -0.34693432 -0.74405986 4280428859
6.3217049 -0.38719988 -0.74738306 4281153612
6.3875313 -0.43057474 -0.75587571 4280824130
6.4194098 -0.47230214 -0.76018357 4278457379
6.4431009 -0.51380718 -0.76350677 4278457898
6.4576244 -0.55485761 -0.76572227 4280102727
6.4511342 -0.59419793 -0.76535302 4280693574
6.4286013 -0.63192886 -0.76301444 4281878873
6.4403958 -0.67300957 -0.76498377 4282733404
6.4312124 -0.71196932 -0.76436836 4281478699
6.3547673 -0.74301708 -0.75538337 4282135081
4.6972952 -0.57876492 -0.54885203 4281674530
4.6769238 -0.60541445 -0.54675961 4282330662
4.6573863 -0.63196903 -0.54479033 4282855718
4.6259084 -0.656636 -0.54134399 4283052330
4.5893955 -0.68021446 -0.53728229 4282330149
4.5596352 -0.70442855 -0.53408217 4281673247
4.5385695 -0.7297188 -0.53198981 4281280033
4.4703803 -0.746939 -0.52398944 4280754719
4.5791435 -0.79399335 -0.53826696 4292134597
4.7558684 -0.8546806 -0.56116021 4282857772
4.7798057 -0.88928455 -0.56485265 4281606937
4.7654877 -0.91691065 -0.5637449 4285817438
4.7860537 -0.95135158 -0.5670681 4284106311
4.7898483 -0.98269248 -0.56829894 4286804852
4.7837281 -1.012064 -0.56829894 4278650631
4.8743963 -1.0625104 -0.58060712 4291153609
4.0650358 1.1258249 -0.53721583 4287726213
4.0871711 1.1049973 -0.539379 4281542952
4.1168675 1.0859611 -0.5426237 4284045908
4.111938 1.0577191 -0.54100138 4282532410
4.4056759 1.0757858 -0.58047885 4284179561
5.0327983 1.1311251 -0.66551763 4279636497
5.0522285 1.1029695 -0.66727519 4282007614
5.0550237 1.0711277 -0.6667344 4286350470
5.3973126 1.1090704 -0.71351248 4287205012
6.0633321 1.0531611 -0.80139041 4288980373
6.1029062 1.0214965 -0.80598706 4285492315
6.1247101 0.98655075 -0.80815023 4288120438
6.1257524 0.94819415 -0.80747426 4291143830
6.1128335 0.90782517 -0.80490553 4291803039
6.0967078 0.86723197 -0.8019312 4294306255
5.8957386 0.80178201 -0.77353984 4288057472
5.9427981 0.77107054 -0.77935332 4280489234
6.2817578 0.77586573 -0.82532024 4281213476
6.2854166 0.73719162 -0.825185 4280490523
6.2730803 0.69675273 -0.82288671 4289313961
5.9146018 0.6202442 -0.77313423 4290957494
5.9666123 0.58870524 -0.77975887 4280233012
6.3203607 0.58445001 -0.82775378 4280825938
6.3080335 0.54429615 -0.82559061 4282928991
6.3043408 0.50502712 -0.82464421 4281548898
6.2905226 0.465094 -0.82234591 4281618549
6.3080864 0.42749131 -0.82437384 4281357420
6.3125687 0.3888993 -0.82464421 4281488495
6.2970285 0.34917244 -0.82221067 4292076277
6.3059797 0.3108691 -0.82315707 4294047733
6.2642126 0.2702938 -0.81720841 4289568670
1.850704 0.068754055 -0.21436588 4283646253
1.8411876 0.057092048 -0.21301393 4283578407
1.8434843 0.045842506 -0.21328433 4283973167
1.8338243 0.034346778 -0.21193235 4283841833
1.7299726 0.021805966 -0.19773668 4284170546
1.7013406 0.011011204 -0.19381598 4282264097
1.7013761 0.00057176634 -0.19381598 4280883992
1.7053108 -0.0098915789 -0.19435677 4280689183
1.7052181 -0.020354982 -0.19435677 4281082403
1.6971358 -0.030672586 -0.19327518 4281279782
1.6919632 -0.040964399 -0.19259921 4281280039
1.694651 -0.051436171 -0.1930048 4281148196
6.2494564 -0.26751897 -0.81518048 4286283130
6.2397799 -0.30547178 -0.81409889 4290819240
6.050808 -0.33343688 -0.78854668 4291082158
6.0150228 -0.36849558 -0.78394997 4285362297
6.255837 -0.42180848 -0.81720841 4283326059
6.2412739 -0.45931226 -0.81558603 4284378229
6.2205601 -0.49618015 -0.81315249 4285036410
6.2292438 -0.53535831 -0.81477487 4285234821
6.2406416 -0.57493454 -0.8168028 4285171335
6.2458706 -0.61408859 -0.81801957 4286091669
6.2291746 -0.65106124 -0.81626201 4286615185
6.2221079 -0.68894321 -0.81585646 4280361762
4.7337327 -0.55347222 -0.61197966 4281674280
4.7243466 -0.58178031 -0.6111685 4281476897
4.7118449 -0.60961252 -0.60995173 4281345572
4.6903429 -0.63611412 -0.6075182 4284964449
4.6657505 -0.66195709 -0.60467905 4282728519
4.6018143 -0.68171126 -0.59643203 4281739042
4.5603356 -0.70418572 -0.59129459 4281739301
4.5451674 -0.73042387 -0.58980739 4281608487
4.5161686 -0.75421649 -0.58642751 4281345573
4.5036454 -0.78055871 -0.58534592 4282135091
4.6645541 -0.83797419 -0.60832936 4287004275
4.7586832 -0.8850674 -0.62211943 4280884760
4.7687302 -0.91724509 -0.6242826 4281739050
5.9505539 -1.1825702 -0.78949308 4287331449
4.7910862 -0.98266608 -0.62901449 4282398773
5.9743686 -1.2637078 -0.79490095 4278912772
5.9684377 -1.3007642 -0.79517132 4288519055
5.9381089 -1.3323706 -0.79206181 4288388496
4.0004678 1.13469 -0.58070552 4288256148
3.9501674 1.0942628 -0.57186806 4284039225
4.1267486 1.1160122 -0.59808594 4282001962
4.1354313 1.0911752 -0.59838051 4283780693
4.119061 1.0598584 -0.59484553 4279702292
4.2924075 1.0764729 -0.62047428 4285888888
5.0981712 1.1465532 -0.73963314 4279373578
5.0403714 1.1010917 -0.72976458 4289243556
5.0373573 1.0680902 -0.72829169 4288585883
5.3983884 1.1101563 -0.7822004 4283584075
5.8852401 1.1727898 -0.85510969 4280294167
5.9253445 1.1430328 -0.86011761 4280753687
5.9157176 1.1035672 -0.85761362 4290159255
5.9544992 1.0730433 -0.86247426 4292458916
5.9317379 1.0313982 -0.85805553 4292720544
5.980875 1.0021827 -0.86453635 4293116593
5.9859352 0.96530825 -0.86438906 4281143558
6.0542989 0.93826759 -0.87381572 4281079831
6.0765734 0.90357774 -0.87631971 4279961099
5.7255802 0.81543994 -0.82270557 4287659131
5.7079358 0.77721924 -0.81931788 4287793538
3.5224175 0.45718005 -0.49041584 4279173891
6.1234207 0.75746244 -0.88029653 4281084479
6.1367946 0.72091585 -0.8816222 4285758084
5.7508483 0.63975382 -0.82314742 4287534718
5.748764 0.60383415 -0.82226366 4279177751
6.0988259 0.60286373 -0.87411028 4281481558
6.1211228 0.56716812 -0.87690884 4284311927
6.1244869 0.52959895 -0.87690884 4281615954
6.1207204 0.49145433 -0.8758778 4281815400
6.0180788 0.44604591 -0.86011761 4281750898
6.129251 0.41650844 -0.87631971 4282341231
6.0961523 0.37668934 -0.87101716 4285100150
6.0904479 0.33883592 -0.86983883 4284896076
6.0914245 0.3014102 -0.86969155 4281539094
6.1079817 0.26467335 -0.87190092 4284631614
1.8109267 0.066517271 -0.23133004 4283516229
1.838982 0.056269005 -0.2354542 4283382578
1.8442364 0.045108229 -0.23619065 4283776556
1.7772322 0.032516673 -0.22617483 4284302384
1.7259696 0.02095196 -0.21851566 4283972657
1.6993608 0.010182789 -0.21453878 4281540382
1.7063149 -0.00024070841 -0.21556982 4281147166
1.702325 -0.010688337 -0.21498066 4280821024
1.6962932 -0.021063818 -0.2140969 4280951328
1.6990989 -0.031524681 -0.21453878 4281017888
1.6860189 -0.041641016 -0.21262401 4280951076
1.6896863 -0.052104656 -0.21321318 4280819231
5.9154677 -0.25217447 -0.84317911 4291612614
5.7725353 -0.28160328 -0.82211637 4289571232
6.0146399 -0.33036909 -0.85849738 4287660923
5.8347921 -0.35644758 -0.83198494 4287728258
5.9371037 -0.3992565 -0.84759784 4291017906
5.9670954 -0.43806177 -0.85245848 4289899945
5.9406314 -0.4727883 -0.84892344 4288123792
5.9307203 -0.50864017 -0.8478924 4285689191
5.9905248 -0.5508045 -0.85731906 4289309348
6.0480638 -0.59352869 -0.86645114 4286680451
6.048243 -0.63103753 -0.86704034 4287933599
6.0481901 -0.66857094 -0.86762947 4292601306
5.9653783 -0.69650823 -0.85584617 4281610285
4.7338414 -0.58242279 -0.67173171 4281148194
4.7056546 -0.60829413 -0.66804945 4281741614
4.6851711 -0.63490224 -0.66554546 4284373591
4.6400557 -0.65781713 -0.65935922 4286018416
4.6153836 -0.6832391 -0.65626609 4280227092
4.5563607 -0.70311224 -0.64801776 4281345572
4.5324287 -0.72792447 -0.64507192 4281345572
4.5356822 -0.75702184 -0.64625031 4281082400
4.5416727 -0.7866922 -0.64787048 4281279269
4.5318923 -0.81367189 -0.64713401 4281017370
4.6824117 -0.87034589 -0.67070067 4278256651
5.7678146 -1.1084737 -0.8361091 4279109650
5.7599349 -1.143651 -0.83596182 4290358184
5.7683129 -1.1821458 -0.83831847 4282264097
4.7757726 -1.0095148 -0.68837565 4291672756
5.7785006 -1.2583096 -0.84214807 4289371541
5.7195163 -1.2822844 -0.83434159 4287726969
5.7616601 -1.3289039 -0.84200072 4290686104
5.7418485 -1.3614956 -0.84023327 4290161300
5.7497239 -1.4006778 -0.8427372 4290883994
5.7400618 -1.4356912 -0.84258991 4289831054
5.7206054 -1.468182 -0.84096968 4286543984
3.7815051 1.0967529 -0.59616154 4291675836
3.8622534 1.0945177 -0.6085785 4282398510
3.9621439 1.0965973 -0.6241793 4283975234
4.1603713 1.124004 -0.65617692 4281346339
4.0669498 1.0720423 -0.63946176 4284836965
4.1690702 1.0716368 -0.65538096 4286613376
4.8829417 1.0965642 -0.76824808 4278846979
4.9628863 1.0825673 -0.78034669 4283978072
5.0119333 1.0610892 -0.78735113 4289962146
5.7011156 1.1704413 -0.8997407 4292852142
5.7372389 1.1412139 -0.90451646 4293443240
5.7218356 1.1016978 -0.900855 4292588962
5.7265463 1.0662073 -0.90053666 4289297002
5.7077179 1.0265079 -0.89639765 4294234555
5.7255812 0.99349135 -0.89830792 4294697929
5.7481232 0.96110785 -0.90101421 4294830545
5.7285695 0.92174399 -0.8968752 4294963933
5.720458 0.88446575 -0.89464653 4294899427
5.6984339 0.84529477 -0.89018917 4294503638
5.6223845 0.79879349 -0.87697619 4289699727
3.5591068 0.48353994 -0.54044431 4285424739
5.7257543 0.74191034 -0.89225864 4281344546
5.7155018 0.70495206 -0.88987076 4280686867
5.7236419 0.6703282 -0.89050752 4288715920
5.6373734 0.62519073 -0.87586188 4287005556
5.6469951 0.59120506 -0.87681705 4281608747
5.7153611 0.56292701 -0.88732368 4283121983
5.724606 0.52839172 -0.88827884 4279963144
5.7405272 0.49435648 -0.89034837 4293647308
5.7345953 0.45841655 -0.8889156 4294961620
5.723516 0.42220527 -0.88668692 4294962387
5.7476692 0.38854191 -0.89018917 4294107336
5.7440329 0.35290471 -0.88923401 4290289812
5.7293324 0.31672812 -0.88652772 4281802016
5.7420144 0.28209975 -0.88827884 4281343003
5.7446232 0.24690443 -0.88843805 4281408285
1.7878673 0.066123068 -0.24975972 4282466633
1.79416 0.055332992 -0.25071487 4282132260
1.8092699 0.044685647 -0.25310275 4283644719
1.782859 0.033094436 -0.24880455 4284104751
1.717875 0.021359066 -0.23829789 4283841071
1.6824334 0.010602232 -0.232567 4281605918
1.6943139 0.00027804027 -0.2344773 4280949787
1.691322 -0.010099713 -0.23399971 4280557852
1.691228 -0.020477276 -0.23399971 4280952097
1.6881094 -0.030799363 -0.23352213 4281279522
1.6869016 -0.041132532 -0.23336296 4281016610
1.6816835 -0.051330656 -0.232567 4280687906
5.7091165 -0.24535087 -0.88270712 4293178785
5.7084894 -0.28042525 -0.88286632 4291534211
5.6908894 -0.31457368 -0.88031924 4291666826
5.6612616 -0.34778953 -0.87586188 4290352519
5.6570511 -0.38238654 -0.87554348 4291339679
5.6959505 -0.42014337 -0.88222957 4292854452
5.6912966 -0.45492768 -0.88191116 4289892985
5.6805296 -0.48916212 -0.88063765 4291666312
5.6951165 -0.5256424 -0.88350308 4291337345
5.6927667 -0.56067389 -0.88366228 4291138678
5.6764541 -0.59425634 -0.88159281 4291006062
5.6638699 -0.62809533 -0.88016003 4289497200
5.6746182 -0.66455984 -0.88254791 4281212433
4.7327499 -0.5836516 -0.73020118 4281807406
4.7183104 -0.61128408 -0.72845006 4281017120
4.6997972 -0.63822973 -0.72606218 4281345573
4.6772208 -0.66441542 -0.72303754 4281345060
4.6427836 -0.68860924 -0.71810257 4280950815
4.6131043 -0.7131601 -0.71396363 4281082400
4.5920711 -0.73878485 -0.71125734 4281279779
4.5728459 -0.76450437 -0.70886946 4281345572
4.564178 -0.79187304 -0.7082327 4281411625
4.5738082 -0.82248551 -0.71062058 4282922029
4.7064943 -0.87620366 -0.73322582 4282857007
5.6210175 -1.0822638 -0.88429904 4283314463
5.6326685 -1.120394 -0.88732368 4290284909
5.6256876 -1.1549344 -0.88732368 4290219884
5.6233244 -1.1904539 -0.88811964 4290023803
5.6168785 -1.2251461 -0.88827884 4280550656
5.113184 -1.1481568 -0.80629498 4292195501
5.61585 -1.2973157 -0.89066672 4290548607
5.5952973 -1.3287832 -0.88859725 4287849813
5.5995069 -1.3661331 -0.89066672 4288311396
5.6044264 -1.4038244 -0.8928954 4289102190
5.5593729 -1.4288453 -0.88684613 4286275160
5.5581379 -1.4649434 -0.88811964 4288123794
3.710494 1.1010278 -0.63240379 4285622377
3.7077177 1.0754923 -0.63069481 4283188289
4.1161432 1.166762 -0.70315534 4284374360
4.1327195 1.1441152 -0.70486432 4280225811
4.1472707 1.1207942 -0.70623147 4287793548
4.1550221 1.0955775 -0.70640236 4283585870
4.6532187 1.1056893 -0.79065478 4284504920
4.722311 1.0915552 -0.80176312 4283778625
5.0355644 1.1315378 -0.85627943 4279042048
5.0318241 1.0983053 -0.85439956 4287068024
5.0664201 1.0733383 -0.85935557 4287327337
5.613359 1.1533934 -0.9550581 4290746253
5.6183972 1.1185435 -0.95471632 4289234290
5.6048384 1.080129 -0.95112747 4290683533
5.6103921 1.0455374 -0.95095658 4291735193
5.6234894 1.0123163 -0.95215285 4291932829
5.6373606 0.97914261 -0.95352 4292787363
5.6286864 0.94209129 -0.95095658 4292655005
5.6324153 0.90722281 -0.95061475 4293247139
5.6222978 0.87023139 -0.94788039 4294498497
5.6138873 0.83368808 -0.94548786 4281738005
5.6218238 0.79964316 -0.94600052 4283250741
5.6031938 0.76194203 -0.941899 4282788907
5.6204653 0.7291978 -0.94412065 4281670680
5.6111441 0.69300389 -0.94172812 4294962915
5.6113763 0.65810162 -0.94104451 4279698432
5.6035576 0.62235093 -0.93899375 4281409561
5.5984521 0.58702987 -0.93745565 4281146135
5.5960655 0.55208576 -0.93643028 4283447091
5.5983663 0.51764762 -0.93625939 4294960345
5.6191068 0.48481509 -0.93933553 4294235074
5.6259041 0.45064327 -0.94001913 4294628290
5.6226678 0.41567782 -0.93899375 4284560680
5.6113496 0.38023454 -0.93660116 4285218614
5.5998096 0.34494579 -0.93420863 4283181084
5.5919833 0.31003204 -0.93249965 4282262296
5.5849237 0.27527606 -0.93096155 4281869341
5.5746956 0.24049038 -0.92891079 4282328609
1.8424335 0.06737569 -0.28086782 4281605397
1.8231159 0.055457685 -0.27744988 4280619021
1.8510014 0.044957485 -0.282235 4280750607
1.8256294 0.03311808 -0.27779168 4281343768
1.7341737 0.020757155 -0.26189822 4282528811
1.7017546 0.0099045103 -0.25625861 4281409309
1.6840482 -0.00054402382 -0.25318244 4280818971
1.6840131 -0.010877139 -0.25318244 4280753948
1.6839147 -0.021209843 -0.25318244 4281148193
1.6778421 -0.031435128 -0.25215706 4281279267
1.6746626 -0.041658137 -0.25164437 4281016608
1.6733907 -0.051903028 -0.25147349 4281081374
5.5767412 -0.23877418 -0.92925262 4288313714
5.5859962 -0.2735157 -0.9311325 4287656552
5.5940509 -0.30832577 -0.93284142 4284433208
5.6018887 -0.34324494 -0.9345504 4286078292
5.5859141 -0.37668583 -0.93215787 4282259216
5.585463 -0.4110975 -0.93249965 4282192393
5.5798888 -0.44512704 -0.93198693 4286469192
5.5809793 -0.47969291 -0.93267053 4285680190
5.6014786 -0.51609272 -0.93677211 4286601292
5.591342 -0.54977959 -0.93557578 4281537035
5.581984 -0.58346373 -0.9345504 4281735441
4.9290056 -0.54594165 -0.82124543 4283117609
4.8785882 -0.57069147 -0.81304234 4282526248
4.8407674 -0.59640652 -0.80706096 4291869624
4.7998843 -0.62130034 -0.80056685 4282988339
4.7061553 -0.63857424 -0.78484428 4281674276
4.6611757 -0.66163313 -0.77766663 4282003243
4.63656 -0.68719268 -0.77407777 4281872168
4.6147285 -0.71292573 -0.77100158 4281543203
4.5878916 -0.73763603 -0.76707095 4281280031
4.5706453 -0.76366532 -0.76484931 4281280031
4.6241241 -0.80178112 -0.77510315 4281606940
4.639483 -0.833794 -0.77869201 4281343005
4.680778 -0.87088501 -0.78689504 4284172362
5.607132 -1.0786383 -0.95146924 4281344545
5.5975089 -1.1124473 -0.95095658 4281605918
5.619535 -1.1527056 -0.95608348 4282065697
5.6123567 -1.1871647 -0.95608348 4281867807
5.6194067 -1.2247233 -0.95864695 4280158991
5.6175551 -1.2604735 -0.95967233 4280161299
5.5559502 -1.2825191 -0.95010209 4280162582
5.5757794 -1.3231775 -0.9550581 4291999153
5.5187335 -1.3454726 -0.94634235 4290940283
5.4214792 -1.3570778 -0.93044889 4290020470
5.4178224 -1.3915424 -0.93130338 4288839532
5.4101348 -1.4250101 -0.93147427 4289235317
5.4041429 -1.458949 -0.93198693 4289566350
5.4045863 -1.4947052 -0.93369591 4286015336
4.0746565 -1.1541539 -0.69563586 4281213211
4.0693908 -1.179682 -0.69597763 4284763200
4.0460153 -1.1998712 -0.69307238 4287134822
4.0470638 -1.2272455 -0.69461048 4279373841
4.0140448 -1.2441857 -0.68999624 4289045666
4.0044565 -1.2681974 -0.68965441 4288915620
3.5419972 1.0752785 -0.65027303 4282466364
3.5890546 1.0655522 -0.65814608 4285493362
4.146657 1.1758637 -0.76360792 4284244574
4.1196852 1.1409551 -0.75701654 4280756259
4.129456 1.1164252 -0.75756586 4282269759
4.1675982 1.0993382 -0.76360792 4282995277
4.1923556 1.0783972 -0.76708668 4287469454
4.5787005 1.1180196 -0.83867627 4279965711
5.3209982 1.2646644 -0.9794752 4293649360
5.1524148 1.191257 -0.945786 4284766033
5.0627494 1.1378542 -0.92729354 4282860095
5.0850034 1.1101221 -0.93022305 4290489760
5.0907578 1.0786965 -0.93003994 4281538828
5.5614409 1.1427845 -1.0182911 4281013009
5.5828114 1.1115171 -1.0210375 4280422416
5.5962834 1.0785426 -1.0223191 4280027656
5.5979638 1.0432838 -1.0214037 4280554516
5.6565075 1.0183179 -1.0312907 4280158991
5.6762104 0.98594564 -1.033854 4280095256
5.7073627 0.95531654 -1.0386144 4280097826
5.7276764 0.92262304 -1.0413609 4279835685
5.7069979 0.88340265 -1.0364174 4279965729
5.6986971 0.84634757 -1.033854 4284178534
3.517736 0.5005486 -0.62262595 4280619280
5.7067056 0.77608722 -1.0334878 4280098863
5.7035608 0.74004543 -1.0320231 4279968047
5.7050672 0.70467383 -1.0314738 4279770666
5.7102594 0.66976941 -1.0316569 4279901484
5.7142625 0.63471925 -1.0316569 4280164396
5.708271 0.59862059 -1.0298259 4284571498
5.7069449 0.56310171 -1.0289105 4280230702
5.7005038 0.52716935 -1.0270796 4280296244
5.7114668 0.49285737 -1.0285443 4280427054
5.6938043 0.4561559 -1.0246993 4280096796
5.6994371 0.42142808 -1.0252486 4282921509
5.6970115 0.38611698 -1.0243331 4282263066
5.6973114 0.35103273 -1.0239669 4280488205
1.9055088 0.10593086 -0.31631052 4281673251
1.9002315 0.093946807 -0.31521195 4280420872
1.9096117 0.082666315 -0.31685981 4280290315
1.8639091 0.069241874 -0.30825442 4280157440
1.8495594 0.057349883 -0.30550802 4283641374
1.8292376 0.045491215 -0.30166304 4286404939
1.8265334 0.034211762 -0.30111375 4286472531
1.7411865 0.021944812 -0.28518462 4282132511
1.7265421 0.011168589 -0.28243822 4280818969
1.7147809 0.00057322858 -0.2802411 4280950814
1.7049215 -0.009889232 -0.27841017 4280753435
1.6969644 -0.020254591 -0.27694541 4281016607
1.6987741 -0.030702565 -0.27731159 4281213986
1.6985537 -0.041125469 -0.27731159 4281016350
1.6933563 -0.051396579 -0.27639613 4280753695
5.6920896 -0.24362545 -1.021953 4280821559
5.6747766 -0.27777678 -1.0190234 4282927702
5.6464624 -0.31112912 -1.0140799 4285098353
5.6738844 -0.34757465 -1.0195727 4282334526
5.6432004 -0.38046268 -1.014263 4291809744
5.672133 -0.41739237 -1.0201221 4284703846
5.6812253 -0.45312685 -1.0223191 4284572260
5.6763792 -0.48780915 -1.021953 4285558896
5.6752372 -0.5228101 -1.0223191 4283650897
5.6836629 -0.55877787 -1.0245162 4282663742
5.6791496 -0.59353942 -1.0243331 4284374614
5.6773548 -0.6285913 -1.0246993 4285427312
5.6812024 -0.66432911 -1.0261641 4280624950
5.680922 -0.69965672 -1.0268965 4283387226
4.7610354 -0.6159808 -0.85497159 4280291858
4.7172251 -0.63976222 -0.84746474 4283712316
4.7112646 -0.66841817 -0.84709859 4280489488
4.6983223 -0.69601613 -0.8454507 4279569928
4.6910486 -0.72438103 -0.84490144 4280096788
4.6738973 -0.75112224 -0.84252125 4280162582
4.6478677 -0.77622211 -0.83849317 4280425502
4.5984602 -0.79699993 -0.83007085 4279833624
4.5838075 -0.82346147 -0.82823992 4279965210
4.5409746 -0.84455794 -0.82109928 4282070327
4.5096421 -0.8673892 -0.81615579 4282070579
4.5119486 -0.896577 -0.81762052 4283253570
4.4909539 -0.92108327 -0.81469101 4281281575
5.6143727 -1.1875372 -1.0296428 4283518022
5.5416641 -1.2077247 -1.0171925 4282201394
5.49578 -1.2330931 -1.0098687 4288714642
5.4497948 -1.2579445 -1.002545 4288515723
5.2420616 -1.2439071 -0.9642784 4286804076
5.2496119 -1.2797749 -0.96720797 4280485378
5.2960191 -1.3255717 -0.97764426 4291602335
5.1887598 -1.3326025 -0.95860249 4287525217
5.0435905 -1.3283497 -0.93223703 4286210127
5.0030756 -1.350558 -0.92601186 4284435266
4.0860295 -1.1298763 -0.75042522 4284369232
4.0478058 -1.1460853 -0.7443831 4283844166
4.0123706 -1.1626894 -0.73889029 4283845699
4.0504022 -1.2007028 -0.74767882 4281015321
4.0420179 -1.2252477 -0.74749571 4282731085
3.3661418 1.0678242 -0.66122085 4292465094
3.3876173 1.0518085 -0.66433406 4282923565
4.1203465 1.1968724 -0.81182325 4284042834
4.1271625 1.1441207 -0.81026661 4280754980
4.1530404 1.1239053 -0.81415814 4283123017
4.1598582 1.0984015 -0.81415814 4284044626
4.1665196 1.0728564 -0.81415814 4284966751
4.4631767 1.1201724 -0.87350404 4281542952
5.2941103 1.294466 -1.041813 4286275922
5.2122602 1.2405887 -1.0235227 4282658327
5.2751966 1.2214288 -1.0348082 4281277462
5.0892982 1.145486 -0.99550366 4282001185
5.1843858 1.133532 -1.0134047 4283250994
5.4320712 1.1528646 -1.0622436 4281475351
5.4303966 1.1177307 -1.0604924 4281738015
5.4333048 1.0836213 -1.0597141 4282064933
5.4350357 1.0493319 -1.0587411 4282656035
5.5107937 1.0289404 -1.0727507 4286871155
5.6579337 1.0205576 -1.1011589 4280559916
5.6785841 0.98834783 -1.1040776 4280954677
5.6951818 0.95527321 -1.1062179 4279574580
5.7154608 0.92265803 -1.1091366 4279641654
5.7229538 0.8878724 -1.1095257 4286613393
3.4755661 0.516922 -0.65771842 4286415242
5.7217655 0.81591201 -1.1071907 4279576381
5.7179174 0.77959424 -1.1054395 4279511358
5.7187028 0.7439881 -1.1046612 4279642174
5.7182927 0.70828092 -1.1036884 4279445825
5.7186341 0.67272156 -1.10291 4279773758
5.7197304 0.63729358 -1.1023264 4283191128
5.71768 0.601569 -1.1011589 4279968047
5.7193108 0.56628096 -1.1007698 4279905093
5.7177949 0.53072298 -1.0997969 4279970628
5.7287612 0.49630815 -1.1013534 4278192923
5.6994343 0.4585453 -1.0949324 4285362808
5.6972494 0.42320126 -1.0939596 4283517508
5.698761 0.38816878 -1.093765 4280489488
5.693203 0.35270771 -1.0922084 4281212959
1.8669699 0.10337754 -0.33160782 4283772708
1.859732 0.091529392 -0.33005121 4282658087
1.8553587 0.079902455 -0.32907835 4281277462
1.8371904 0.067817301 -0.32538137 4281342744
1.8287481 0.056266092 -0.32363018 4282724908
1.76238 0.043359123 -0.31039897 4282198306
1.8302816 0.033839058 -0.32382476 4284566850
1.7431633 0.021473885 -0.30650744 4281804837
1.7275684 0.010670035 -0.3033942 4280753178
1.7079837 5.5549899e-05 -0.29950267 4280621849
1.7040282 -0.010403192 -0.29872435 4280753435
1.6960859 -0.020768071 -0.29716775 4280950814
1.6920036 -0.031105272 -0.29638943 4280950814
1.6917809 -0.041486625 -0.29638943 4280753948
1.6973772 -0.052042712 -0.29755691 4280819229
5.7156429 -0.24269901 -1.0955162 4280230954
5.6964107 -0.27691135 -1.0920137 4279572509
5.6446533 -0.30913344 -1.0820904 4284045918
5.6690855 -0.34536755 -1.0873439 4284177243
5.6433711 -0.37857509 -1.0826741 4283321934
5.6575727 -0.41440979 -1.0859818 4284506208
5.6832805 -0.45136237 -1.0916246 4284835175
5.6852908 -0.48664311 -1.0925975 4285427058
5.6841507 -0.52169716 -1.0929867 4285164400
5.6808434 -0.55656463 -1.0929867 4285558645
5.6782966 -0.59151256 -1.0931813 4285557869
5.6774855 -0.62666506 -1.093765 4287203983
5.6754818 -0.6617164 -1.0941541 4280692029
5.7034435 -0.70046729 -1.1005751 4279968300
4.7407851 -0.61198813 -0.90891707 4283846990
4.7068062 -0.6369949 -0.90288514 4281148186
4.6824136 -0.66298062 -0.89879906 4280688923
4.68505 -0.69270146 -0.90016109 4279900960
5.6831508 -0.87568641 -1.1013534 4280691768
4.6636057 -0.74812549 -0.89763159 4279703321
4.6744089 -0.77930385 -0.9007448 4280229150
4.5419521 -0.78592694 -0.87506068 4283650123
4.4984231 -0.80686402 -0.86727762 4282597435
4.476028 -0.83123142 -0.86377525 4281478439
4.5228629 -0.86865723 -0.87428236 4281675302
4.5155234 -0.89601129 -0.8738932 4280490515
4.4715014 -0.91583842 -0.86611015 4280820769
4.4446826 -0.93880361 -0.86182946 4280821538
4.422544 -0.96251619 -0.85852164 4280821538
4.4041109 -0.98684931 -0.85599214 4280821024
4.3779001 -1.0092318 -0.85190606 4280359190
4.375443 -1.036979 -0.85268438 4279108610
4.3346858 -1.0554615 -0.84567958 4283911242
4.3090949 -1.0772859 -0.84178805 4288779152
4.2834001 -1.0988359 -0.83789653 4287199345
5.2537117 -1.3818887 -1.0383105 4291736492
5.2053547 -1.4033834 -1.0301384 4291604134
5.1900268 -1.4334699 -1.0287763 4280617991
4.1060028 -1.1614814 -0.8071534 4282985510
4.0893764 -1.1839284 -0.80520761 4282002727
4.1121335 -1.2179033 -0.81143409 4280165149
3.3161395 1.0737872 -0.69566572 4288584335
3.321733 1.0531238 -0.69545931 4282135340
4.1096349 1.19266 -0.8630358 4284572001
4.1178164 1.1676881 -0.86324215 4286414714
4.1343341 1.1450106 -0.8653059 4285295462
4.156395 1.1237057 -0.86860794 4285556837
4.1669965 1.0991793 -0.8694334 4284965728
4.1755576 1.0740777 -0.86984617 4284176216
5.278307 1.3231572 -1.1082093 4283253562
5.160852 1.2601179 -1.0809678 4282197788
5.2046614 1.2370228 -1.08881 4285617489
5.1806931 1.1977931 -1.0819997 4280752145
5.1125264 1.1490378 -1.065696 4282002214
5.2571406 1.1476885 -1.095414 4283578676
5.2726989 1.1172345 -1.0972714 4281998874
5.3024573 1.089586 -1.1022243 4294367697
5.3167205 1.0585582 -1.1038754 4290289812
5.5075903 1.0614552 -1.1434994 4280159258
5.5630574 1.0367808 -1.1540245 4279902262
5.5856853 1.005573 -1.1575329 4279445311
5.616816 0.97563308 -1.1628987 4279114292
5.6381373 0.94373405 -1.1662006 4279375409
5.6563802 0.91114342 -1.1688836 4288652474
5.6608977 0.87626976 -1.1686771 4280035644
5.7242393 0.85013932 -1.1810596 4279313987
5.731286 0.81527549 -1.1814724 4279445573
5.7410278 0.78075254 -1.1825043 4279577157
5.7466812 0.74563742 -1.1827106 4279708484
5.7521191 0.71048236 -1.182917 4279840323
5.7476239 0.67414933 -1.1810596 4280693571
5.7428999 0.63789827 -1.1792023 4279772208
5.7408662 0.6020366 -1.177964 4279708486
5.7337413 0.5657438 -1.1756939 4279446341
5.7224898 0.52920103 -1.1725982 4279313726
5.7373276 0.49508721 -1.1750748 4278190867
5.7148986 0.45784441 -1.169709 4280623394
5.7117448 0.42233726 -1.1684707 4280753174
5.6986089 0.38622516 -1.1651688 4282134829
1.8617585 0.11497042 -0.35390872 4281735181
1.8594979 0.10338238 -0.3532896 4281737755
1.8493472 0.09144146 -0.35101947 4281541661
1.8391203 0.079629034 -0.34874934 4281672220
1.8297962 0.06798169 -0.34668559 4282460453
1.8164866 0.056331299 -0.34379634 4282000155
1.8314707 0.045546282 -0.34689197 4282064917
1.8121496 0.033945385 -0.34276447 4282196245
1.7389439 0.021917047 -0.32728636 4281541144
1.7165412 0.011106133 -0.32253972 4280753174
1.7136416 0.00057310431 -0.3219206 4280621849
1.7136129 -0.0099416142 -0.3219206 4280687642
1.7125412 -0.020444058 -0.32171422 4280885021
1.7045571 -0.030808399 -0.32006323 4281016350
1.7014015 -0.041195065 -0.31944409 4280687642
1.7030727 -0.051693708 -0.31985685 4280556318
5.7308979 -0.24528907 -1.1703281 4280163611
5.7058291 -0.27929887 -1.1653751 4282137401
5.6795835 -0.31295639 -1.1602157 4284176984
5.6980658 -0.34905756 -1.1645496 4283124042
5.6255264 -0.37926993 -1.1496906 4284045144
5.6299238 -0.41428345 -1.1511352 4285229933
5.6877489 -0.45364755 -1.1639305 4284769382
5.6916823 -0.48912534 -1.1653751 4285229933
5.6798048 -0.52323121 -1.1635177 4285230190
5.6852522 -0.55893421 -1.1653751 4285493105
5.681715 -0.59380776 -1.1653751 4286347383
5.6808825 -0.62898213 -1.1659943 4285690744
5.6788597 -0.66405493 -1.166407 4280297273
5.7242055 -0.70499039 -1.1769321 4279903543
5.7236538 -0.74060267 -1.1777576 4280166715
5.7209406 -0.77597159 -1.1781704 4279837485
5.7121968 -0.81050992 -1.1773449 4282599500
4.7072773 -0.69734341 -0.96415949 4281744191
5.7143912 -0.88248861 -1.1800277 4284505454
5.7204614 -0.91939884 -1.1825043 4286018416
4.8210363 -0.80515689 -0.99140108 4281346588
4.7629805 -0.82552832 -0.98005044 4282002727
4.7664928 -0.85629576 -0.98190784 4281871916
5.6500015 -1.0509173 -1.1725982 4280361762
5.6665068 -1.0900028 -1.1775513 4280295715
4.7863917 -0.95113605 -0.98975003 4281543464
4.7795072 -0.98029023 -0.98954368 4281740330
4.8758311 -1.0312709 -1.0116258 4281345826
4.9210367 -1.0724237 -1.02277 4281345824
4.9449148 -1.1094555 -1.029374 4281411615
4.3898158 -1.0131986 -0.91070843 4281017890
4.3540039 -1.0331095 -0.90431082 4279569928
4.3314223 -1.0558649 -0.90080243 4279897099
4.3106241 -1.0788574 -0.89770681 4281278240
4.2783356 -1.098713 -0.89213467 4281015321
4.2497511 -1.1192102 -0.88738805 4281540893
4.2220216 -1.1396534 -0.88284779 4282461736
4.1923161 -1.159277 -0.87789482 4281145876
4.1738267 -1.181779 -0.87541831 4281607456
4.161798 -1.2060049 -0.87438643 4281146653
5.0520773 -1.4977393 -1.0718873 4287204748
3.1806848 1.0725274 -0.70998353 4290889140
3.21315 1.0615724 -0.7160868 4284963150
3.2149613 1.0403329 -0.71499693 4279832595
4.0998292 1.1621329 -0.91204441 4282861381
4.1125259 1.1385188 -0.91335225 4281676080
4.1561756 1.1232034 -0.92185318 4282334010
4.1695943 1.0994241 -0.923379 4285230440
4.215013 1.0837942 -0.93231589 4286083433
5.1246576 1.2844752 -1.140262 4281081110
5.1476116 1.2567135 -1.1437496 4286608237
5.1542759 1.2248789 -1.1435317 4283252542
5.0894322 1.1765079 -1.1269658 4280621592
5.1146464 1.1493272 -1.1311072 4285617733
5.1587868 1.1260478 -1.1396081 4288112968
5.1579609 1.0927531 -1.1378644 4289430378
5.2018514 1.0687522 -1.1463653 4281473558
5.413137 1.0776355 -1.1930115 4280558638
5.4551044 1.0512414 -1.2010765 4279903295
5.4815989 1.0215085 -1.2056539 4280233023
5.5098543 0.99183625 -1.2106673 4279903806
5.5369902 0.96168834 -1.2154627 4279839300
5.5726252 0.93269634 -1.2222198 4286745247
5.6023312 0.90237069 -1.2276692 4279573551
5.6328373 0.87186497 -1.2333364 4279708483
5.6680069 0.84173644 -1.2400936 4279775567
5.6875582 0.80900693 -1.2433633 4279446343
5.7020855 0.77541053 -1.245543 4279380297
5.719317 0.74204355 -1.2483766 4279511368
5.7382913 0.70873392 -1.2516462 4279575091
5.7512555 0.67453599 -1.253608 4281284166
5.753346 0.63901836 -1.253172 4280036934
5.7474527 0.60268474 -1.2509923 4279446602
5.7510424 0.56740767 -1.2509923 4279380801
5.766077 0.53318995 -1.253608 4279313977
5.7585449 0.4968749 -1.2512102 4279576118
5.7303548 0.45903173 -1.2442352 4280230441
5.7126245 0.42234698 -1.2396576 4286149228
1.8660402 0.12566422 -0.37801081 4283184170
5.7017913 0.35124919 -1.2361702 4280754726
5.6999416 0.3160401 -1.2352983 4284573038
1.8602389 0.09090925 -0.37626702 4281935905
1.8607616 0.079493329 -0.37626702 4281737753
1.8602393 0.068038121 -0.37604904 4282001436
1.8528178 0.056380238 -0.37430525 4282133535
1.8531289 0.0450105 -0.37430525 4283644202
1.7918959 0.032484528 -0.36057296 4283905832
1.6993531 0.020316904 -0.33986554 4283118123
1.6974939 0.0098767867 -0.33942959 4280490004
1.6926428 -0.00054083625 -0.33833972 4280556569
1.703343 -0.010988577 -0.34073743 4280425753
1.7032434 -0.021439888 -0.34073743 4280819741
1.706983 -0.031960797 -0.34160933 4280753435
1.7057792 -0.042410456 -0.34139135 4280819229
1.7103643 -0.053023998 -0.34248123 4280425500
1.7363399 -0.064477734 -0.3483665 4280360222
5.7385745 -0.24566929 -1.2431452 4280097564
5.6648245 -0.27735895 -1.2270153 4280295458
5.70297 -0.31430626 -1.2359521 4284637796
5.6999602 -0.3492336 -1.2357342 4283453520
5.6451268 -0.3806664 -1.2239636 4284703585
5.6514449 -0.41594002 -1.2259254 4284374620
5.6565695 -0.45122802 -1.2276692 4284835173
5.691617 -0.48917916 -1.2361702 4284966761
5.6875367 -0.52400374 -1.2359521 4285098093
5.6861572 -0.55908251 -1.2363881 4285164399
5.6855316 -0.59426534 -1.2370421 4284768616
5.6846886 -0.62946159 -1.2376959 4287467406
5.7059226 -0.66727257 -1.2433633 4279705649
5.7298121 -0.70572501 -1.2496845 4279048497
5.7253737 -0.74086916 -1.2496845 4279380532
5.7255559 -0.77664042 -1.2507743 4285559674
4.7215257 -0.6701842 -1.0253904 4285359725
5.7165594 -0.84698623 -1.2509923 4279968550
5.7160773 -0.88279015 -1.2520821 4280890943
5.704772 -0.91691869 -1.2507743 4288056722
4.7787428 -0.79838049 -1.0423923 4280290569
4.7949109 -0.83135021 -1.0471876 4281411104
4.778192 -0.8586868 -1.044572 4281411619
4.7872267 -0.89066339 -1.0478415 4280690216
5.5857863 -1.0745367 -1.2307208 4280166452
5.5608997 -1.1051792 -1.2265793 4280166452
5.5195947 -1.1322266 -1.2187322 4280363829
5.4628901 -1.1555804 -1.2073977 4280689705
4.7776785 -1.0414518 -1.0524189 4281411878
4.7588181 -1.0679722 -1.0495853 4281872681
4.8139906 -1.1114073 -1.0637536 4282332727
5.3151317 -1.2613797 -1.180369 4284046157
5.2864308 -1.2888877 -1.1755737 4290949276
5.0474052 -1.2635245 -1.1223882 4291009946
4.8873601 -1.2554139 -1.0872946 4288512898
4.7842393 -1.2602912 -1.0652794 4281277462
4.7453213 -1.2812355 -1.0580863 4280817940
4.6574111 -1.2882321 -1.0395585 4280949785
4.1620331 -1.1788777 -0.92643064 4281015321
4.8146777 -1.3955116 -1.0798836 4280027908
4.826611 -1.4311266 -1.084679 4290159509
4.9690523 -1.5065544 -1.1199906 4287788397
4.9149656 -1.5231588 -1.1095278 4287201916
3.1396124 1.0593872 -0.74154657 4282196772
3.1460536 1.040103 -0.74154657 4285228900
4.0879841 1.186379 -0.96397096 4282991690
4.0783315 1.1564951 -0.95983928 4281805615
4.0853505 1.1314492 -0.95983928 4281411368
4.1457729 1.1208349 -0.9729231 4282398774
4.1798649 1.1025727 -0.97957975 4283123524
4.19315 1.0786014 -0.98118645 4281543465
5.0059547 1.2549049 -1.1772137 4280752660
5.0003228 1.220934 -1.1740001 4281409560
5.013402 1.1915797 -1.1753774 4281016350
5.0092392 1.1581656 -1.1726229 4280095767
4.9991579 1.1235671 -1.1684912 4282264618
5.0420928 1.1007576 -1.1772137 4282066720
5.2382345 1.1099347 -1.2228922 4280885285
5.3202643 1.0932438 -1.2410259 4280165688
5.3450093 1.0641882 -1.2453872 4280298305
5.3724647 1.0354227 -1.250437 4280299845
5.4064646 1.0076078 -1.2570937 4280169035
5.4470305 0.98062122 -1.2653571 4279050035
5.4826727 0.95234191 -1.2724729 4287732134
5.5066524 0.92173463 -1.2768341 4280889670
5.5516014 0.89427269 -1.2862453 4280431704
5.5800686 0.86376363 -1.2917542 4279643728
5.5939288 0.83079499 -1.2938201 4279446852
5.6133747 0.79851073 -1.2972633 4279643720
5.6442084 0.76759219 -1.3034608 4279512395
5.6661863 0.73519868 -1.3075925 4280168259
5.6850801 0.70220643 -1.3110356 4282337618
5.7086153 0.66957659 -1.3156264 4279378228
5.71842 0.63518089 -1.3170037 4279248962
5.7580256 0.60383487 -1.3254967 4279445824
5.77034 0.56935251 -1.3275626 4279380031
5.7853546 0.5350104 -1.330317 4279510840
5.7768922 0.49849868 -1.3275626 4280034091
5.7458854 0.46032482 -1.3195286 4282461744
5.7243352 0.42326739 -1.3137901 4281014300
1.8532031 0.12586264 -0.39815447 4285096540
1.8568549 0.11466861 -0.39884311 4282529846
1.8546081 0.10311152 -0.39815447 4282925634
1.8620107 0.092064962 -0.39976126 4282662462
1.8605957 0.080554359 -0.39930218 4281148193
1.8639729 0.069244228 -0.3999908 4281146903
1.8449059 0.057206567 -0.39539999 4281606940
1.8384112 0.045717414 -0.39379323 4283315502
1.823087 0.034147933 -0.39012057 4283841318
1.7162074 0.021635534 -0.36487117 4284171568
1.7591323 0.011372116 -0.37497091 4281211417
1.7163438 0.00057339907 -0.36487117 4280687385
1.7143683 -0.0099461675 -0.36441207 4280753435
1.7220609 -0.020559847 -0.3662484 4280687642
1.7257948 -0.031197064 -0.36716655 4280753436
1.722652 -0.041714419 -0.36647794 4280753695
1.7301463 -0.05252162 -0.36831427 4280622109
1.747299 -0.06377954 -0.37244597 4280358937
5.5713482 -0.23844939 -1.2752273 4280887595
5.7885098 -0.28335163 -1.3268739 4280163611
5.6914234 -0.31360963 -1.304379 4280096018
5.687449 -0.34840649 -1.3039199 4284570459
5.6890888 -0.38355961 -1.3048381 4283584595
5.6691561 -0.41717312 -1.3007063 4279900698
5.6577578 -0.45125347 -1.2986405 4284506208
5.686883 -0.48871261 -1.3062153 4284111452
5.6925006 -0.52440155 -1.3082812 4284440415
5.6940184 -0.55979669 -1.3094288 4284309342
5.6885405 -0.59452146 -1.3089697 4284702556
5.6905894 -0.63005757 -1.310347 4285361515
5.7291517 -0.66993928 -1.3204467 4279574566
5.7394233 -0.70686567 -1.3238899 4279576373
5.7475262 -0.74369329 -1.3268739 4279574833
5.7409258 -0.77868366 -1.3264148 4281021491
4.7271104 -0.67066771 -1.0860863 4282203712
5.6962771 -0.84393758 -1.3181514 4280099381
5.666945 -0.87515801 -1.3124129 4279904574
5.6566639 -0.90914077 -1.3112651 4281152319
4.8263469 -0.80604428 -1.1140902 4280226065
4.8021307 -0.83231717 -1.1094993 4281345572
4.8045969 -0.86314422 -1.1113358 4281476901
4.8106928 -0.89474499 -1.1140902 4280690476
5.5190682 -1.0616313 -1.2855567 4280364347
5.5009947 -1.0931983 -1.2828022 4280759105
5.4198155 -1.111672 -1.2648981 4279573287
5.3986092 -1.1418843 -1.2614549 4282730585
5.3220806 -1.1598541 -1.2446985 4281349959
5.3386054 -1.1978165 -1.250437 4278193173
5.3121886 -1.2261716 -1.2458463 4293785079
5.258163 -1.2477291 -1.2345988 4278977538
4.7577558 -1.1598307 -1.1150084 4280097038
4.7439408 -1.1873472 -1.1134015 4283384896
4.8006687 -1.2329012 -1.1290103 4285225044
4.8523078 -1.2779558 -1.1434714 4290683293
4.845315 -1.3079586 -1.1437008 4281803297
4.8568974 -1.3431135 -1.1485212 4280555030
4.8476286 -1.3726244 -1.1482917 4280291344
4.8465934 -1.4045109 -1.150128 4285946457
4.85748 -1.4400334 -1.1549484 4289368971
4.8420334 -1.4678344 -1.1533415 4284499511
4.8366542 -1.4986694 -1.1542597 4284561719
4.8709779 -1.542129 -1.1650481 4286604636
4.6150908 -1.4923129 -1.1039904 4293646795
4.5799694 -1.5120568 -1.0975633 4284828217
4.5733724 -1.5410631 -1.0982519 4283909156
4.5592289 -1.5675132 -1.0971042 4286474305
4.547688 -1.5948142 -1.0966451 4288381791
4.5442319 -1.624983 -1.0982519 4289435259
4.5396619 -1.6548356 -1.0996292 4291280032
4.5239482 -1.6806253 -1.0982519 4294567861
4.4862437 -1.6980138 -1.0913657 4287000379
4.5147896 -1.7405668 -1.101236 4286342709
4.5130844 -1.7717938 -1.1035314 4285360978
3.0354934 1.0651784 -0.75781494 4294110672
3.0575726 1.0519063 -0.76190746 4281738002
3.2111058 1.0827972 -0.80042529 4281015572
3.109875 1.0274125 -0.77225912 4281479982
4.0461283 1.2277972 -1.0086621 4281020467
4.0814977 1.2112392 -1.0158843 4282728509
3.9667501 1.1507144 -0.98434782 4283384898
4.0475011 1.1472844 -1.003366 4280227605
4.8438878 1.3412058 -1.2065474 4286081893
4.8435936 1.3091779 -1.2043808 4283579187
4.8318281 1.2742313 -1.1993253 4283579957
4.8075972 1.2363334 -1.1911403 4283579441
4.8866405 1.2247611 -1.2094362 4283643179
4.8931208 1.1945239 -1.2091955 4283642409
4.8437033 1.151001 -1.1947513 4283314726
4.8875532 1.1297927 -1.2041401 4282592544
4.9161725 1.1046811 -1.209677 4281410590
5.1257772 1.118835 -1.2611945 4280363066
5.1733727 1.0960217 -1.2715461 4280102476
5.2446475 1.0775548 -1.2879163 4280300371
5.2692456 1.0489583 -1.2924902 4280498261
5.3079853 1.0228584 -1.3006753 4280300884
5.3351526 0.99418622 -1.3059715 4278590254
5.3755393 0.96762913 -1.314638 4286679192
3.3455417 0.58059865 -0.80211043 4285824650
5.4367857 0.9099319 -1.3271563 4280236372
5.4758039 0.88196415 -1.335582 4279841873
5.4935813 0.85028124 -1.3387116 4279907918
5.522696 0.82012659 -1.34473 4279710028
5.5535679 0.78992015 -1.3512299 4279710288
5.5765829 0.75831789 -1.3558038 4279905097
5.6080809 0.72758847 -1.3625445 4283785835
5.6317043 0.69554758 -1.3673592 4280496193
5.6464701 0.66222477 -1.3700073 4279970886
5.6784015 0.63067907 -1.3769886 4279642950
5.6927824 0.5969407 -1.3796368 4279642690
5.7166219 0.5640046 -1.3846922 4279446339
5.7248073 0.52936524 -1.385896 4279969848
5.7501874 0.4961521 -1.3914329 4282072643
5.7821479 0.46319121 -1.3986549 4280229671
5.7810097 0.42741686 -1.397692 4278849049
1.9052566 0.1283298 -0.43354318 4281344282
5.8130937 0.32233721 -1.4039512 4279045915
5.8130236 0.28656667 -1.4034697 4279638563
5.8185511 0.25106138 -1.4044327 4279900447
1.818094 0.066470169 -0.41115469 4285031513
1.8281687 0.055614632 -0.41356206 4282462763
1.8323569 0.044492871 -0.414525 4283381549
1.8325953 0.033248905 -0.414525 4284104741
1.7318314 0.020727541 -0.38948843 4285750598
1.6911621 0.0098355869 -0.37937751 4281080344
1.7232201 -0.00052949559 -0.3873218 4280687385
1.6969789 -0.010951888 -0.38082191 4280687642
1.704644 -0.021456556 -0.3827478 4280885021
1.708362 -0.03198567 -0.38371077 4280819229
1.7207476 -0.042772356 -0.38684034 4280753695
1.7214229 -0.053359274 -0.38708106 4280556570
1.7472515 -0.064875573 -0.39358094 4280490777
1.7565178 -0.076008439 -0.39598832 4280425500
5.7888846 -0.28340751 -1.3974513 4280032292
5.7850981 -0.31881571 -1.3969698 4280821289
5.7830334 -0.35430637 -1.3969698 4280623908
5.7788138 -0.38965353 -1.3964883 4279965982
5.7056508 -0.41991824 -1.3789146 4280755758
5.6729736 -0.45253319 -1.3714517 4279703329
5.7851686 -0.49720031 -1.4000994 4279046169
5.7723432 -0.53179961 -1.397692 4279572772
5.7670398 -0.56701845 -1.3972105 4279902254
5.7731056 -0.60340071 -1.3996179 4279638566
5.7721887 -0.63913232 -1.4003401 4280033324
5.743093 -0.67161173 -1.394081 4279573548
5.7330837 -0.70612735 -1.3926365 4279509298
5.7045789 -0.73818254 -1.3866181 4279706427
5.6912856 -0.77199888 -1.3844515 4279969848
5.6652999 -0.80390972 -1.3791553 4284969087
5.6343369 -0.83482069 -1.3726554 4280231742
5.6147194 -0.8671574 -1.3690444 4280100922
5.59971 -0.90005398 -1.366637 4280691503
4.8368096 -0.80806714 -1.1762146 4280030226
4.7992439 -0.83210039 -1.1680295 4280950814
4.7997799 -0.86256099 -1.169474 4281477158
4.8230247 -0.89731467 -1.1766961 4280953394
5.4407902 -1.0466746 -1.3341376 4280495165
5.3628645 -1.065864 -1.3160824 4279704107
5.3847485 -1.1045949 -1.3233045 4281875276
5.316144 -1.1245708 -1.3076566 4278981924
5.3091435 -1.157169 -1.3076566 4279972418
5.2867904 -1.1863266 -1.3038049 4281286730
5.2548218 -1.2130724 -1.2975457 4293983221
5.2265024 -1.2403665 -1.2922494 4291482309
5.1735287 -1.2613866 -1.2806941 4289180072
5.1176701 -1.2810973 -1.2684166 4293720310
4.9780951 -1.2786984 -1.2347136 4278453513
4.8087111 -1.2667316 -1.1933069 4283120705
4.7680497 -1.2873664 -1.1848811 4281407765
4.7731581 -1.3202176 -1.1882514 4285680192
4.7537608 -1.3463093 -1.1853626 4284299577
4.7463431 -1.3757224 -1.1856034 4286670445
4.6717391 -1.385245 -1.168511 4294959848
4.6102042 -1.3978441 -1.1547891 4285285185
4.6580968 -1.4436184 -1.169474 4281536008
4.7268829 -1.4967663 -1.1896958 4284035118
4.5846167 -1.4827645 -1.1550298 4289296497
4.556076 -1.5044808 -1.1499743 4284823836
4.4906492 -1.5135125 -1.1352894 4286800179
4.4528227 -1.5312606 -1.1278266 4286735149
4.4497552 -1.5608009 -1.1295118 4286868015
4.4684277 -1.5982006 -1.1369746 4288248898
4.4621849 -1.6269174 -1.1379375 4288378691
4.4785056 -1.6640635 -1.1449189 4285680150
4.465487 -1.6904814 -1.1441966 4285419035
4.4731441 -1.7248288 -1.1490114 4285748762
4.4742222 -1.7568519 -1.152141 4285686321
4.4399238 -1.7749104 -1.1458819 4285427551
4.0331264 1.4711674 -1.0787619 4294241254
4.0220327 1.4392225 -1.0732127 4282199077
2.9478471 1.0345931 -0.77405816 4282132770
2.9815912 1.0259279 -0.78162533 4281280033
3.1519668 1.0629447 -0.82677597 4278520072
3.988791 1.2907476 -1.0525292 4287335559
4.0796609 1.2925447 -1.0752306 4286283128
4.0736513 1.2631904 -1.0714471 4282071354
3.9162891 1.1619273 -1.0245308 4282002216
4.0004849 1.1602402 -1.0454665 4280356619
4.1173897 1.1667938 -1.0752306 4283384128
4.7372088 1.3110321 -1.2409512 4284368193
4.769453 1.2885002 -1.2475094 4280156928
4.7454548 1.2508279 -1.2389333 4284103989
4.5871525 1.1790622 -1.1942871 4283841328
4.7707729 1.1950855 -1.2417079 4284037422
4.7714348 1.1641849 -1.2399422 4284037420
4.7794299 1.1351095 -1.2401944 4283446825
4.8023334 1.1094639 -1.2444825 4281541146
