# .PCD v0.7 - Point Cloud Data file format
VERSION 0.7
FIELDS x y z rgb
SIZE 4 4 4 4
TYPE F F F U
COUNT 1 1 1 1
WIDTH 1084
HEIGHT 1
VIEWPOINT 0 0 0 1 0 0 0
POINTS 1084
DATA ascii
1.6150844 0.21878543 0.2343632 4282463276
1.6252549 0.21002251 0.23546001 4282724395
1.6274979 0.20016804 0.23558189 4282724650
1.626724 0.1899465 0.23533815 4282593575
1.623913 0.17952245 0.23485067 4282724907
1.6259711 0.16965865 0.23497254 4282790443
1.6230305 0.15928808 0.23448506 4282462248
1.6269424 0.1496011 0.23485067 4282462246
1.631785 0.13995767 0.23533815 4282331430
1.6276662 0.1295453 0.2347288 4282331428
1.6284305 0.11955569 0.2347288 4282265637
1.631114 0.10969621 0.23497254 4281936674
1.6367096 0.099991962 0.23558189 4282133284
1.6333282 0.089726813 0.23509441 4282067491
1.6417787 0.080095775 0.23606937 4282264869
1.6412476 0.069977507 0.23594749 4282330662
1.6386706 0.059794981 0.23558189 4282462249
1.6390066 0.049739163 0.23558189 4282593583
1.6372964 0.039632019 0.23533815 4282527792
1.6365165 0.029566374 0.23521627 4282330927
1.6426219 0.01959963 0.23594749 4282265386
1.6437038 0.0095267799 0.23606937 4281674280
1.6477015 -0.00055750413 0.23655684 4281609006
66.509972 28.037642 8.0157261 4279306754
66.627502 27.606947 8.0093517 4278649600
66.672287 27.147385 7.9946241 4285823347
66.694565 26.680559 7.9775887 4282137399
66.641396 25.715189 7.9330759 4287135869
66.829529 25.317772 7.9368129 4284375903
77.450577 26.654604 9.0917234 4279437829
77.583466 26.169027 9.0883169 4285360228
77.735023 25.689995 9.0874376 4289506728
1.690099 0.25128135 0.22337428 4281938992
1.6365025 0.23307121 0.21721944 4282069808
1.6300226 0.22195442 0.21634018 4282135088
1.6382538 0.21284342 0.21710953 4281740584
1.6345967 0.20217839 0.21655999 4281937448
1.6298833 0.19145057 0.21590056 4282002214
1.6300396 0.18133654 0.21579064 4281936421
1.6291444 0.17112418 0.21557082 4282133030
1.6291746 0.16102718 0.21546093 4281870628
1.6350806 0.15148503 0.21601045 4281739303
1.6389501 0.14170566 0.21634018 4281345315
1.643752 0.13196383 0.21677981 4281871657
1.6465132 0.12202191 0.21699964 4282003245
1.6472309 0.11191681 0.21699964 4282200624
1.6478864 0.10180748 0.21699964 4282398009
1.6484801 0.091694325 0.21699964 4282332218
1.6539755 0.081822112 0.21754918 4282068783
1.6524605 0.071586385 0.21732935 4282002473
1.6409494 0.061005425 0.21601045 4282001698
1.6363255 0.050782613 0.21546093 4282264869
1.6326318 0.040643349 0.21502128 4282462249
1.6328503 0.030624945 0.21502128 4282659374
1.636983 0.020654609 0.21546093 4282463278
1.6231638 0.010522983 0.21392222 4282134829
1.6291616 0.00056388893 0.21458165 4281740331
1.6231709 -0.009396527 0.21392222 4281280811
1.61215 -0.019222964 0.21271323 4281478190
1.6953075 0.22971134 0.20267846 4281807406
1.6404309 0.21199465 0.19710633 4282135602
1.6387379 0.20155858 0.19681306 4282135091
1.6458743 0.19219644 0.1973996 4282924607
1.6638374 0.18396498 0.19906147 4282200371
1.6570168 0.17292048 0.19827941 4282266675
1.6511139 0.16206455 0.19759512 4282200884
1.6451404 0.15128762 0.19691081 4282529849
1.65397 0.1418764 0.19769287 4282266675
1.6438971 0.1308488 0.19661754 4282267188
1.6476465 0.12098031 0.19691081 4282136372
1.6493505 0.11093576 0.19700858 4282201141
1.651987 0.10093624 0.19720408 4282136372
1.646613 0.090466134 0.19661754 4282136371
1.6461431 0.080311805 0.19651979 4282136371
1.6525707 0.070468359 0.19710633 4282070836
1.6489938 0.060179047 0.19671531 4282267188
1.6403794 0.049781807 0.1958355 4282069295
1.641649 0.039740484 0.19593325 4282134059
1.6339017 0.029517261 0.19515119 4282265899
1.6300715 0.019440949 0.19476017 4282200620
1.6331457 0.009458079 0.19505344 4282201135
1.6301873 -0.00056399987 0.19476017 4281937963
1.6172158 -0.010492045 0.19348934 4281543464
1.6300575 -0.020568863 0.19476017 4281345832
1.6279106 -0.030534424 0.19456466 4281805876
1.6471908 0.051117249 0.17639434 4281807664
1.6434894 0.040911078 0.176052 4282266674
1.634744 0.030660015 0.17528167 4282134061
1.6349014 0.020628836 0.17528167 4282135342
1.6379862 0.010615548 0.17553845 4282069549
1.6350315 0.00056452927 0.17528167 4282003756
1.6379929 -0.0094858594 0.17553845 4281806123
1.6349152 -0.019499863 0.17528167 4281542951
1.6407417 -0.029640529 0.17579523 4281346086
1.7202116 -0.041654777 0.18264249 4281280039
3.6932814 0.40978801 0.30855373 4294572525
2.0583022 0.11337726 0.18676279 4294835707
1.8228877 0.089060411 0.16936408 4294705145
1.7925122 0.076534748 0.1670883 4294441452
1.704885 0.041316312 0.16055462 4292859850
1.6921439 0.030611103 0.15960024 4280028937
1.6683667 0.019925129 0.15783836 4282529071
1.64552 0.0095385965 0.15614988 4282069288
1.6285934 -0.00056459103 0.15490186 4282003241
1.641524 -0.010632184 0.15585622 4281740069
1.6444196 -0.020739792 0.15607646 4281674276
1.6622099 -0.031153139 0.15739788 4281607715
1.6879095 -0.041978415 0.1593066 4281542439
3.808857 0.49500743 0.26946226 4289569951
3.7959731 0.46966794 0.26848826 4285688924
3.7878785 0.44508722 0.26781863 4294636754
3.4611833 0.38521755 0.24760836 4294373831
3.0525079 0.32082987 0.22240639 4294966740
2.8070846 0.27766284 0.20724869 4294703058
2.6049871 0.24156952 0.19476944 4294373584
2.4980261 0.21621577 0.18813415 4294308559
2.3321545 0.18747486 0.17790726 4294046157
2.2078378 0.16387399 0.17023709 4294374101
2.1221626 0.14444256 0.16494103 4294110933
2.0702076 0.12815954 0.16171469 4291084201
1.9374096 0.10803425 0.15355752 4294176472
1.9091252 0.09471596 0.15179217 4291475618
1.9166509 0.083301991 0.15221828 4292918176
1.8921893 0.070614539 0.15069643 4287327062
1.823748 0.056870788 0.1464961 4293384136
1.7402444 0.043597996 0.14138266 4283714625
1.7285033 0.032695372 0.14065216 4280291080
1.7276733 0.022076327 0.14059129 4282196256
1.6848569 0.01119958 0.1379737 4281999391
1.6479627 0.00085080572 0.13572134 4281933598
1.6499331 -0.0092726015 0.1358431 4281802012
1.647849 -0.019372294 0.13572134 4281604633
1.6457031 -0.029446762 0.1355996 4281407515
1.6385065 -0.039374564 0.13517347 4281210906
1.7030835 -0.051399279 0.13913031 4280686356
3.9092693 0.53193194 0.22767863 4292793818
3.8352036 0.49788192 0.22388196 4282135855
3.8397477 0.42676151 0.22368726 4294239463
3.6148214 0.37925357 0.21254057 4284367676
3.5832863 0.35371923 0.21088561 4284895817
3.6241763 0.3353273 0.21278396 4285621340
2.4091768 0.20761396 0.15325388 4286342216
2.2540967 0.18024704 0.14561184 4287132764
2.1117265 0.15575381 0.13860258 4288119405
2.0289361 0.13708934 0.13451384 4289501311
1.9509839 0.11975588 0.13066848 4288711033
1.9028163 0.10505459 0.12828338 4291207820
1.8904563 0.092732966 0.1276506 4293969568
1.881011 0.080697276 0.12716384 4286401846
1.8265743 0.067102157 0.1244867 4285217323
1.8449215 0.056454532 0.12536286 4283117858
1.7723427 0.043304101 0.12180955 4287856753
1.6956803 0.030970821 0.11806154 4280553990
1.6838535 0.020412117 0.11747743 4282131230
1.6589772 0.0099129686 0.11626054 4282130461
1.6440245 -0.00027468259 0.11553042 4282130461
1.6360015 -0.010317552 0.11514101 4282064668
1.6319125 -0.020308826 0.11494631 4281933084
1.6347531 -0.03037519 0.11509234 4281801244
1.6325389 -0.04035734 0.11499499 4281735453
1.6562212 -0.051095903 0.11616319 4281145626
1.6558765 -0.061257329 0.11616319 4286805105
3.974308 0.56546497 0.18210071 4294506746
3.9390836 0.53581905 0.18067841 4286940549
3.7226031 0.41362855 0.17229047 4283716430
3.6028225 0.37796757 0.16780476 4294637290
3.4529135 0.34085065 0.16222495 4283188533
3.5255919 0.32618648 0.16481428 4287532160
2.9251645 0.25260916 0.14275035 4279835418
3.0561583 0.24502186 0.14749137 4287140240
2.1506207 0.14600006 0.11426783 4293517267
2.2163103 0.1367916 0.11663834 4284303939
1.9067905 0.10600185 0.10529639 4285158738
1.8954273 0.093710281 0.10485876 4291338374
1.855032 0.080314636 0.10336351 4287652167
1.8165424 0.067492083 0.10194121 4280680960
1.8299075 0.056744639 0.10241532 4292726224
1.8012494 0.044801086 0.10135771 4282069559
1.7085682 0.032027163 0.09796606 4282328869
1.6677629 0.021035716 0.096470818 4282327327
1.6588668 0.01074595 0.09614259 4282262046
1.651906 0.00056637003 0.095887311 4282196253
1.6438838 -0.0095213642 0.095595554 4281998874
1.6387982 -0.019547096 0.095413208 4281998874
1.6386474 -0.029602205 0.095413208 4281932573
1.6384351 -0.0396562 0.095413208 4282062878
1.6431552 -0.049861427 0.095595554 4281210390
1.5825145 -0.067453668 0.093407393 4285093198
4.0064912 0.56954062 0.13399175 4287072646
3.8577085 0.40413755 0.12991644 4288715394
3.6153812 0.35626361 0.12394905 4293320142
3.225296 0.29772642 0.11439152 4286675560
3.0328443 0.26113316 0.10966127 4280032787
2.3229957 0.15672368 0.092292756 4294966251
2.3189244 0.14215875 0.092171475 4283645234
1.8336486 0.10087495 0.080357969 4281870376
1.8252466 0.089177176 0.080139652 4292725703
1.8097793 0.077283263 0.079751529 4293049771
1.7992302 0.065768376 0.079484694 4286670409
1.7866101 0.054323792 0.079169348 4281607188
1.7609253 0.042712815 0.078538641 4287199861
1.6891881 0.030555595 0.076792091 4285485382
1.6743495 0.020000774 0.076428227 4283180573
1.654447 0.009596684 0.075943068 4282523932
1.6584735 -0.00055350905 0.076040104 4282064410
1.6524408 -0.010695121 0.075894557 4281998875
1.6543432 -0.0208579 0.075943068 4281998617
1.6521851 -0.030972306 0.075894557 4281998104
1.6539627 -0.04115767 0.075943068 4281932060
1.6806588 -0.052123386 0.076598033 4281014816
4.1789141 0.64697081 0.086182013 4283520344
4.1758819 0.62028944 0.086098939 4286415745
3.8331363 0.42589867 0.081767134 4286215270
3.8376665 0.40257943 0.081790872 4294569968
3.7126913 0.36646512 0.080271773 4287531144
3.0168931 0.27917784 0.071952328 4289570703
2.9258997 0.25267258 0.070848614 4281742116
2.8476558 0.22833198 0.069899172 4287271052
2.4831097 0.16851202 0.065531768 4292530125
2.3343909 0.14405897 0.063751571 4283515963
2.2423797 0.12458978 0.062647849 4281940029
1.8096575 0.089487299 0.057497159 4293786620
1.7931896 0.077650018 0.057295404 4292533708
1.7886361 0.066461176 0.057236061 4291212448
1.7680216 0.05483865 0.056986835 4286345055
1.7393358 0.043274436 0.056642666 4289238153
1.7155743 0.032156907 0.056357831 4281073920
1.6977419 0.0214069 0.056144208 4287844928
1.6918418 0.010951883 0.056073003 4286924592
1.6798781 0.00056942127 0.055930585 4283443230
1.6698508 -0.0096778637 0.055811904 4282327582
1.6667603 -0.019887209 0.055776305 4282064667
1.666607 -0.030113881 0.055776305 4281736732
1.6643916 -0.040290564 0.055752568 4281866780
1.6541184 -0.050196689 0.055633888 4281474079
4.1848283 0.67524636 0.033231653 4285298547
3.8626752 0.40601707 0.033479493 4279702290
3.7038853 0.36631367 0.033592589 4286875015
2.9204555 0.27049839 0.034143414 4294111457
2.8981504 0.25049737 0.034160171 4286016098
2.8777039 0.23094115 0.03417553 4289110942
2.4383516 0.16541405 0.0344848 4292466130
2.3195522 0.14300478 0.034568578 4283779127
2.2774529 0.12636527 0.034598596 4281346866
1.8107661 0.089088507 0.034925323 4293455096
1.8062832 0.077757902 0.034928814 4293453530
1.8037287 0.066560708 0.034930907 4285095763
1.7921089 0.055115253 0.034939285 4283843378
1.7224357 0.042349774 0.034988154 4288185968
1.7096655 0.031531665 0.034997229 4285023537
1.6828293 0.020689992 0.035016079 4287647284
1.6699247 0.010274831 0.035025157 4286200101
1.6649563 2.4572597e-05 0.035028648 4285017634
1.6559254 -0.010142663 0.035034928 4283244571
1.652832 -0.020268386 0.035037022 4282392092
1.6516769 -0.030391904 0.035037722 4281933082
1.6514592 -0.040525831 0.035037722 4281866778
1.670171 -0.05122738 0.035024457 4281474589
4.3274131 0.7244308 -0.020287227 4285824378
3.8609135 0.42898217 -0.013790943 4283384904
3.835628 0.40236574 -0.013429318 4282462011
3.8320544 0.37823451 -0.013351828 4287072135
3.8343029 0.35471436 -0.013351828 4284377441
2.7788448 0.22282392 0.0003768988 4284766809
2.349395 0.15945852 0.0059691276 4287401351
2.3303688 0.14381143 0.00622743 4284239425
2.2693074 0.12608126 0.0070281643 4279898380
1.8286097 0.090420432 0.012736628 4293716725
1.8151442 0.078595981 0.01291744 4294638579
1.7816184 0.066201933 0.013356552 4285622884
1.8279654 0.056684822 0.012762459 4285817430
1.7872947 0.044456996 0.013291977 4280028422
1.708554 0.032026898 0.014312267 4288248688
1.6737239 0.021109521 0.014764296 4287780663
1.6758218 0.010851835 0.014738465 4286989354
1.6718571 0.0005685463 0.014790125 4285477675
1.6608301 -0.0096234968 0.014932191 4283244319
1.6577405 -0.019777495 0.014970938 4282326553
1.6595873 -0.029985419 0.014945107 4281736985
1.6603718 -0.040192325 0.014932191 4281998105
1.6860796 -0.051174052 0.014596399 4281672481
1.6967254 -0.06192233 0.014454333 4293522411
4.4441462 0.79976696 -0.07693544 4292008920
4.4391208 0.77077037 -0.076684132 4285561206
3.7656541 0.4178412 -0.058665853 4294965236
3.7303667 0.39075834 -0.057710912 4281871919
3.8003428 0.37455001 -0.059419755 4279769112
3.8344226 0.35417646 -0.060223918 4286349950
2.6297553 0.21002294 -0.029741112 4292596425
2.4715559 0.16682138 -0.025695171 4294966259
2.2909369 0.14042887 -0.021121494 4285357132
2.4055436 0.13270178 -0.023986325 4280292623
1.8222122 0.08902698 -0.009285219 4293124830
1.8137356 0.077454761 -0.0090590455 4294770674
1.7971938 0.065692618 -0.0086318366 4293191636
1.7795774 0.054105356 -0.0081794932 4283777071
1.7698821 0.042936016 -0.0079281926 4283709485
1.7121408 0.030986661 -0.0064706467 4283445800
1.7053015 0.020392111 -0.0062947348 4286859828
1.6814026 0.0097720809 -0.005691614 4287449655
1.6694347 -0.00054944371 -0.0053900518 4284885019
1.6634017 -0.010758312 -0.0052392744 4283705122
1.6603057 -0.020928862 -0.0051638819 4282130461
1.6551484 -0.03102576 -0.0050382316 4281933084
1.6559262 -0.041205138 -0.0050633624 4281932060
1.689616 -0.052394949 -0.0059177838 4281343006
1.6493019 -0.061304245 -0.0049125813 4293784048
4.5385938 0.84592491 -0.13654989 4291482828
3.7254391 0.41394335 -0.10394869 4287530107
3.7269151 0.39097255 -0.10391117 4282727218
3.7938848 0.37447092 -0.1063497 4287335559
3.8010862 0.35164484 -0.10653728 4286088063
2.5880971 0.19158059 -0.06065549 4293254872
2.3279347 0.14366162 -0.050788842 4284304191
2.4325399 0.13512257 -0.05469048 4282197801
1.8524368 0.091593586 -0.0328563 4288781472
1.8080374 0.078289762 -0.031168088 4294966525
1.8084836 0.06719438 -0.031168088 4287662983
1.7828925 0.055296652 -0.030192681 4294238674
1.7562255 0.043690898 -0.029179752 4282592019
1.7294842 0.032414503 -0.028166831 4286209608
1.7056693 0.021505054 -0.02726645 4287387964
1.687782 0.010926529 -0.026591167 4287252789
1.6868181 0.00057017832 -0.026553653 4285476903
1.683792 -0.0097618867 -0.026441105 4283376416
1.6757066 -0.019996025 -0.026140973 4282327842
1.6735542 -0.03024102 -0.026065946 4281802012
1.675335 -0.040558018 -0.026140973 4281801244
1.6780512 -0.050928552 -0.026253521 4281474849
4.6933317 0.90596944 -0.20266363 4285232744
3.6865516 0.41033649 -0.14898859 4285757302
2.6195076 0.19394541 -0.094712704 4294834933
2.5977306 0.176303 -0.093561098 4284897616
2.3336089 0.14387855 -0.080242477 4287794294
2.4022565 0.13335447 -0.083647236 4282593573
1.8603855 0.091561973 -0.05640915 4287660420
1.8110226 0.077964991 -0.053905651 4294899444
1.7865157 0.065914318 -0.052653901 4292202172
1.8188306 0.055954579 -0.054256141 4292395944
1.81914 0.04479339 -0.054256141 4285420341
1.7105371 0.031548336 -0.048798509 4286868039
1.6877291 0.020753656 -0.047646903 4287320629
1.6758403 0.010315387 -0.047046065 4287515189
1.6718769 2.955494e-05 -0.046845779 4285410850
1.6688496 -0.010212662 -0.046695575 4284098593
1.6627632 -0.020383116 -0.046395153 4282063897
1.6656026 -0.030638246 -0.046545364 4281736219
1.660391 -0.040738661 -0.04629501 4281932571
1.6700927 -0.051225036 -0.046795711 4281539871
4.8219271 0.99000466 -0.26908493 4292731097
4.8063755 0.95611697 -0.26771885 4283389259
3.7322361 0.43723959 -0.19662151 4288453527
3.6832647 0.40861365 -0.19339263 4287269253
2.5113177 0.18547066 -0.11950107 4285427308
2.4407108 0.1652161 -0.11503033 4289831332
2.4237468 0.14913662 -0.11391264 4294962154
2.3598404 0.13068543 -0.10987654 4287129705
2.0974238 0.10329162 -0.093483791 4285024854
1.8337728 0.079080738 -0.077028953 4283448894
1.8292365 0.067644075 -0.076718479 4294567621
1.829617 0.056418817 -0.076718479 4292785559
1.8279332 0.04514258 -0.076594293 4285350698
1.7433542 0.03236974 -0.071316324 4284760102
1.702602 0.021172632 -0.068770483 4288109379
1.6907234 0.010652557 -0.068025358 4287513906
1.6727916 0.0002794489 -0.066907667 4286331177
1.676754 -0.01000937 -0.067156047 4283835678
1.6686771 -0.020199046 -0.066659294 4281999644
1.666526 -0.030400602 -0.066535108 4281802265
1.6643125 -0.040576525 -0.066410922 4281998364
1.6640322 -0.050787792 -0.066410922 4281275929
1.6866293 -0.061843578 -0.067839079 4279637265
4.8801961 1.0974804 -0.33611742 4289114279
4.9618521 1.0839202 -0.34185058 4282203705
4.9927964 1.0586312 -0.34371197 4292137935
5.036314 1.035617 -0.34654135 4286414714
3.6804326 0.43188432 -0.23932385 4284640106
3.72563 0.4140431 -0.24252549 4285429618
2.326122 0.14300838 -0.13664821 4288978053
2.3140121 0.12801026 -0.13568026 4280160010
1.9910549 0.097730055 -0.11148187 4287004537
1.8073052 0.077489279 -0.097707398 4291933096
1.8127291 0.066584654 -0.098079674 4294626474
1.8051296 0.055211626 -0.09748403 4288770381
1.7605735 0.043008767 -0.094133474 4286140215
1.7249109 0.031524897 -0.091453038 4285747261
1.7041317 0.020672044 -0.089889459 4288701767
1.6812909 0.010062055 -0.088176958 4287054890
1.6713487 -0.00025977963 -0.087432384 4285740579
1.6643351 -0.010475953 -0.086911187 4283443228
1.6552651 -0.020582682 -0.086241081 4282065437
1.6501224 -0.030649751 -0.085868798 4281736985
1.6499033 -0.040774133 -0.085868798 4281802266
1.63168 -0.050356153 -0.08452858 4281737504
1.6652236 -0.061596494 -0.087060101 4279833874
6.3988538 -0.82674682 -0.4443773 4285035632
6.3748846 -0.86345428 -0.44296262 4285956736
6.3645296 -0.90185487 -0.44259033 4284245605
6.3411183 -0.93826574 -0.44125012 4287271306
5.0934081 1.2105892 -0.41771296 4286875007
4.7047143 1.0877817 -0.38236624 4286611833
4.7453208 1.0665369 -0.38539845 4280030993
5.0379353 1.0998503 -0.41086885 4289172372
5.0436139 1.0687109 -0.41078222 4282862147
6.5037923 0.84382212 -0.53276312 4294638839
6.4920387 0.80182475 -0.53129035 4286217078
3.7570081 0.44080099 -0.2914004 4284638297
3.7626123 0.4180699 -0.29166031 4285231463
6.4948902 0.64079422 -0.52999079 4286348913
6.5145717 0.60239702 -0.53137696 4285627761
2.0533817 0.12676401 -0.14135012 4290886054
1.9685752 0.10942405 -0.1338996 4280093188
1.9453287 0.096167237 -0.13182038 4281477159
1.8174864 0.078696899 -0.12064456 4287593589
1.802006 0.066955082 -0.11925843 4289166190
1.8023828 0.055896923 -0.11925843 4288965727
1.8026921 0.044836659 -0.11925843 4290941061
1.7601022 0.032981519 -0.11553315 4283972656
1.7174363 0.02165075 -0.11180789 4288113756
1.6946238 0.010969256 -0.10981531 4286070823
1.6896781 0.00057049026 -0.10938213 4284952093
1.6796875 -0.0097371479 -0.10851579 4284033059
1.6706306 -0.019934284 -0.10773609 4282721057
1.6684846 -0.030148247 -0.10756282 4281934111
1.6702603 -0.040433992 -0.10773609 4281802527
1.6679893 -0.05062085 -0.10756282 4281672228
6.347949 -0.78185278 -0.51864177 4286476391
6.2975845 -0.81490469 -0.5146566 4288122493
6.2914791 -0.85339653 -0.51456994 4293452749
6.2792192 -0.89100415 -0.51396352 4289898389
6.2913728 -0.93214518 -0.5155229 4287398269
6.3140864 -0.97514212 -0.51803529 4286939520
6.3030663 -1.0130755 -0.51760215 4292729557
6.2996802 -1.0522238 -0.51786202 4292860110
4.4436131 1.115257 -0.41792458 4284240457
4.4436064 1.0863147 -0.4172318 4285949018
4.479228 1.0659473 -0.42020094 4282332719
5.0644126 1.1725752 -0.47928751 4286084211
5.0355945 1.1333857 -0.47562551 4286279269
5.0385656 1.1016154 -0.47522962 4285354585
5.0423098 1.0700583 -0.47493273 4284046686
6.3259888 0.86262614 -0.59726262 4287928208
6.3301764 0.82366574 -0.59716362 4288912532
3.552283 0.43954578 -0.31825942 4285887859
6.4979272 0.76455623 -0.61299926 4290428081
6.5064516 0.7251128 -0.61339509 4288456860
6.4890075 0.68288124 -0.61121774 4286811245
6.3257265 0.62644851 -0.59449136 4289507228
6.5196877 0.60531962 -0.6134941 4285890941
1.8513818 0.11390376 -0.14674021 4284703328
1.8719165 0.10365454 -0.14871965 4294241514
1.9122715 0.09414842 -0.15267855 4288910730
1.8531648 0.079806581 -0.14674021 4292789166
1.8774849 0.069330491 -0.14911555 4292920227
1.7794096 0.054716367 -0.13931727 4289695090
1.7737432 0.043646265 -0.13872345 4286078533
1.7590541 0.032476466 -0.13723886 4283974189
1.7204149 0.021178324 -0.13337894 4286211412
1.6996161 0.010478395 -0.13130051 4285485369
1.6936778 4.5250519e-05 -0.13070668 4283511844
1.6757348 -0.010249954 -0.12892517 4282593064
1.6666852 -0.020428423 -0.12803443 4281870376
1.6665283 -0.030654626 -0.12803443 4281016861
1.6682986 -0.040927082 -0.12823237 4281081371
1.6590644 -0.050894529 -0.12734161 4280752923
6.6541843 -0.28235865 -0.62467796 4286808437
6.5787764 -0.3196224 -0.61735404 4284438085
6.5886149 -0.36063349 -0.61854166 4282989869
6.643887 -0.40455136 -0.62428206 4285819746
6.6323442 -0.44471228 -0.62339133 4287135861
6.6225438 -0.48489177 -0.62269855 4286478444
6.6214271 -0.525675 -0.62289649 4285557856
6.6131191 -0.56587005 -0.6224016 4286609769
6.6144776 -0.6068905 -0.62289649 4286743662
6.6027064 -0.64669013 -0.6221047 4287136113
6.5511055 -0.68225235 -0.61735404 4285755746
6.5027037 -0.75799167 -0.61339509 4290619279
6.4297795 -0.7895214 -0.60656601 4291738273
6.2521005 -0.80670655 -0.58924586 4289237890
6.2194209 -0.84132361 -0.5864746 4290685860
4.6051507 -0.65206063 -0.42485267 4286806643
6.2578502 -0.92484719 -0.59142327 4294965744
6.1891122 -0.95354158 -0.58508903 4294967026
6.1870756 -0.99212867 -0.58548492 4294375912
6.1553502 -1.0258249 -0.58291161 4283060553
4.4412875 1.1998718 -0.47564733 4294703086
4.3601522 1.1493008 -0.46544009 4283778109
4.3911867 1.1287091 -0.4682138 4286607973
4.3180122 1.0817064 -0.45900506 4284568125
4.4384999 1.0829798 -0.47209698 4286279519
4.4760036 1.0630715 -0.47564733 4285692273
5.0512013 1.1018248 -0.53922087 4287005038
5.0432835 1.0677239 -0.53755665 4284900453
6.1717415 0.83820409 -0.65738112 4290757043
3.5688829 0.46258307 -0.36381117 4286675568
6.3956037 0.78878939 -0.68145698 4284047969
6.4328966 0.75334448 -0.68511826 4285760125
6.4383864 0.71396828 -0.68522918 4285957753
6.198503 0.64890635 -0.65782493 4287998601
6.1815982 0.6088165 -0.65549499 4279112712
6.4573646 0.59597665 -0.68600583 4285097581
6.4955554 0.55932593 -0.68988907 4280226842
6.4701352 0.51716471 -0.68667156 4284766046
6.4850807 0.47833151 -0.68800294 4283124042
6.4878931 0.4385308 -0.68800294 4287467657
6.4983974 0.39920062 -0.68889052 4288384899
6.4987407 0.35921007 -0.68866861 4288317826
1.9962571 0.098328248 -0.18518394 4294770155
1.915404 0.082583725 -0.17608616 4290422152
1.8642305 0.068930693 -0.17031685 4292656796
1.830844 0.056456398 -0.16654459 4290486652
1.8391043 0.045416087 -0.16743216 4286736715
1.7946337 0.033310436 -0.1624395 4285027134
1.7500856 0.021752261 -0.1574468 4286211412
1.7084461 0.010760144 -0.15278697 4285751886
1.7114615 0.00027691794 -0.1531198 4285357132
1.7104371 -0.010218253 -0.15300885 4282593832
1.7013985 -0.020602759 -0.15201032 4281410336
1.6942844 -0.030913452 -0.15123367 4281345826
1.6960499 -0.041357711 -0.15145558 4281410336
1.6937774 -0.0517026 -0.15123367 4281213729
6.5592518 -0.28194365 -0.69499266 4288912019
6.5474715 -0.32169682 -0.69388318 4293978070
6.5552979 -0.36241451 -0.69499266 4289050555
6.5430312 -0.40202016 -0.69388318 4293457914
6.5325089 -0.44162315 -0.69299561 4290300104
6.5148087 -0.48059991 -0.69133139 4289313209
6.5087652 -0.52032721 -0.69099855 4287272086
6.5044603 -0.56016916 -0.69088757 4282796879
6.4949632 -0.59952074 -0.69022191 4286214767
6.4743485 -0.63770473 -0.68833578 4287793278
6.4574647 -0.67607248 -0.68689346 4289041538
6.4364018 -0.71381873 -0.68500733 4290026628
6.4388113 -0.75410795 -0.68578398 4289038965
4.6645613 -0.57523686 -0.4867422 4289499771
4.660944 -0.60384721 -0.4867422 4290683781
4.6384401 -0.62989235 -0.48463416 4291276170
4.6187449 -0.65610379 -0.48285902 4294963913
4.5979204 -0.68195134 -0.48097289 4291538574
4.5867743 -0.70908743 -0.48019624 4288645994
4.5823369 -0.73721802 -0.48019624 4285228106
6.0490198 -1.0114235 -0.64673007 4288321412
4.7567687 -0.85540223 -0.50160933 4289963153
4.8041902 -0.89439964 -0.50760055 4288319860
4.827888 -0.92949975 -0.51092899 4287724641
4.8445125 -0.96356642 -0.51348078 4286799948
4.8677144 -0.99927145 -0.51680928 4282328091
4.883853 -1.0338559 -0.51936108 4279700748
4.9065471 -1.0701591 -0.52268952 4284574309
4.4560199 1.2337135 -0.53531301 4288453786
4.3792057 1.1835421 -0.52448177 4284111442
4.2117505 1.1105517 -0.50208092 4287335810
4.2482786 1.0923572 -0.50589645 4283850839
4.4204283 1.0790125 -0.52620494 4285757554
4.3429713 1.0318886 -0.51549679 4285494645
5.0146532 1.126834 -0.59931558 4289374628
5.0612235 1.1047293 -0.60436195 4294634731
5.0630522 1.072624 -0.60374653 4285889142
6.2021203 0.9600994 -0.74024433 4286022006
6.2206554 0.92392355 -0.74184436 4284178005
6.1986976 0.88181829 -0.73839808 4291414716
6.0191283 0.81858987 -0.71525872 4286809715
6.2021632 0.80478919 -0.73753649 4280032282
6.2660775 0.77402896 -0.74492145 4280294429
6.2835221 0.73707187 -0.74652147 4280819742
6.2898989 0.69872248 -0.74676764 4288523931
6.021666 0.63149512 -0.71279705 4288654742
6.1064091 0.60254133 -0.72288978 4279440925
6.3995233 0.59189373 -0.75895274 4282074716
6.4198427 0.55406952 -0.76104516 4290428364
6.4468622 0.51657432 -0.7639991 4281943387
6.4518895 0.47715414 -0.76424527 4281288293
1.9021611 0.12811939 -0.19831485 4285625716
6.4077339 0.3948825 -0.75809121 4281484653
6.4367895 0.35704684 -0.76141441 4279381323
6.3942561 0.31533691 -0.75587571 4281685609
1.8928349 0.080883674 -0.19683787 4294964446
1.8189173 0.066500798 -0.18760672 4292261787
1.8361536 0.05586265 -0.18969911 4290222453
1.8404303 0.044694059 -0.19019145 4286341697
1.7285488 0.031294815 -0.17628318 4285354559
1.6860386 0.020148564 -0.17099068 4286670427
1.6801763 0.0097641023 -0.17025217 4285620304
1.6752427 -0.00054728962 -0.16963676 4284895550
1.686124 -0.010889308 -0.17099068 4282133020
1.6810638 -0.021175914 -0.17037526 4281739044
1.6799099 -0.03147243 -0.17025217 4281542951
1.6915904 -0.042067409 -0.17172918 4281475618
1.6992359 -0.052686609 -0.17271382 4281081120
6.2890925 -0.26912484 -0.74258286 4291021773
6.3031821 -0.30848214 -0.7445522 4286874243
6.2476621 -0.3442139 -0.73790574 4283985252
6.2563286 -0.38320771 -0.73925966 4292801528
6.2479186 -0.42118922 -0.73852116 4290235346
6.2788672 -0.46198753 -0.74270594 4292342258
6.368906 -0.50790399 -0.75427568 4285961616
6.3973098 -0.54968619 -0.75821429 4287475114
6.390852 -0.58865643 -0.75784504 4289776070
6.4009471 -0.62921554 -0.75956815 4287012771
6.379199 -0.66662586 -0.75735271 4288129451
6.3749886 -0.70575529 -0.75735271 4287003236
4.7086434 -0.55085248 -0.54983664 4288316008
4.6913853 -0.57803822 -0.54811352 4288712044
4.6720028 -0.60477865 -0.54614419 4289698164
4.6416516 -0.62983793 -0.54282099 4290552699
4.617065 -0.65538293 -0.54023629 4293446561
4.5913591 -0.68050498 -0.53752846 4290354039
4.5704241 -0.70609254 -0.53543609 4289893747
4.553267 -0.73207808 -0.53383601 4289303419
4.4958305 -0.7511847 -0.52718961 4280028928
4.600656 -0.79771793 -0.54097474 4285751890
4.7314487 -0.85029823 -0.55808312 4282655769
4.7544374 -0.88457108 -0.56165254 4280814080
4.7547674 -0.91485071 -0.56239098 4285289546
4.7841072 -0.95096511 -0.56682193 4280356619
4.8073478 -0.98627836 -0.57051444 4283781454
4.7779026 -1.0108329 -0.56756043 4279968801
3.9846501 1.1299392 -0.5268057 4287666317
4.108006 1.1377214 -0.54329973 4289042825
4.0106506 1.0843168 -0.52856326 4280556559
4.0890837 1.0786349 -0.53870302 4285886830
4.1071401 1.0564854 -0.5403254 4282601034
4.3259487 1.0844934 -0.57020384 4293717992
4.3931627 1.0727314 -0.57872128 4285954668
5.0492325 1.1348175 -0.66781598 4282662967
5.0638447 1.1055046 -0.66889751 4293913578
5.0947652 1.0795455 -0.67227745 4286613126
6.0138488 1.0826238 -0.79544175 4285624681
6.036974 1.0485847 -0.7977401 4284702029
6.0647941 1.0151198 -0.80071443 4286871650
6.0875378 0.98056549 -0.80301273 4289170802
6.11694 0.94683063 -0.80625749 4289893249
6.1285148 0.91015297 -0.80706865 4284499262
5.9211173 0.84226614 -0.77773094 4286345316
3.541405 0.48176363 -0.4493379 4289375383
6.2022023 0.80471092 -0.81504524 4280492827
6.257174 0.7728309 -0.8219403 4281215531
6.2421169 0.73211586 -0.81923634 4279574556
5.9156089 0.65707046 -0.77381027 4285369191
5.8456221 0.61301506 -0.7636705 4279115283
6.2318563 0.61485869 -0.81612682 4280955213
6.2660966 0.57943553 -0.82031792 4287861661
6.2547269 0.53969979 -0.81829 4281219658
6.2648344 0.50186479 -0.81923634 4281027424
6.25495 0.46246609 -0.81747884 4281554540
6.2586589 0.42414469 -0.81761402 4281357680
6.2601547 0.38567343 -0.81747884 4281422433
6.2633924 0.34730938 -0.81761402 4293389541
6.2545195 0.30833539 -0.81612682 4289436805
1.8452978 0.079895213 -0.21368991 4286805352
1.8200096 0.067620166 -0.21017478 4292393883
1.8461393 0.057244554 -0.21368991 4290289273
1.8424938 0.045818083 -0.21314912 4287394894
1.78132 0.033374447 -0.20476691 4285421632
1.717093 0.021646496 -0.19597912 4285816401
1.694405 0.01096789 -0.1928696 4285488206
1.6984036 0.00057144207 -0.19341038 4284370237
1.7033292 -0.0098796356 -0.19408637 4283843899
1.6893661 -0.020162169 -0.19219361 4282265647
1.6872293 -0.030491289 -0.19192322 4281542954
1.6889915 -0.040891774 -0.19219361 4281148706
1.6896992 -0.051284745 -0.19232881 4281082654
6.2504463 -0.26756141 -0.81531566 4287007104
6.0448227 -0.29591548 -0.7874651 4287137918
6.0023313 -0.33076245 -0.78192204 4289243043
6.1099629 -0.37431797 -0.79692888 4291285446
6.18466 -0.41700485 -0.80747426 4290894284
6.1632104 -0.45356253 -0.80490553 4290104765
6.106977 -0.48711318 -0.79760486 4289512371
6.1453342 -0.52814168 -0.80328315 4290958023
6.1903234 -0.57029569 -0.80990779 4291223767
6.2113585 -0.61069328 -0.81328773 4290371803
6.2094655 -0.64900011 -0.8135581 4292935412
6.2161989 -0.68828857 -0.81504524 4283848519
4.7484941 -0.55519933 -0.61400765 4288447083
4.7390976 -0.58359802 -0.61319643 4287987560
4.7216711 -0.61088467 -0.61130369 4287528812
4.6844521 -0.6353147 -0.60670698 4294964456
4.6392641 -0.65819705 -0.60102874 4294832360
4.5900531 -0.67996794 -0.59480971 4289433463
4.5603356 -0.70418572 -0.59129459 4288512864
4.5500588 -0.73121035 -0.59048337 4288776038
4.5386462 -0.75797218 -0.58953702 4287789161
4.5134082 -0.7822516 -0.58669788 4279895809
4.7006364 -0.8444593 -0.61333168 4284832853
4.7703724 -0.88724244 -0.62374181 4280557601
5.9722924 -1.1488444 -0.79152101 4289042843
5.9631872 -1.1850817 -0.79125065 4291604904
4.798851 -0.98425931 -0.63009608 4292527556
5.8871264 -1.2452483 -0.7827332 4279765250
5.8764701 -1.2807146 -0.78232765 4287663241
5.9110394 -1.3262951 -0.78827631 4285690472
5.8776889 -1.3567439 -0.78476119 4287073667
3.8824842 1.1011894 -0.56244141 4291742147
3.905371 1.0818396 -0.56494534 4282004007
4.1286578 1.1165291 -0.59838051 4282992707
4.1153488 1.0858704 -0.59528738 4287864222
4.1516271 1.0682474 -0.59985346 4286087560
4.2722621 1.0714149 -0.61738116 4282993998
5.0267653 1.1304775 -0.72873354 4289765536
5.0046196 1.0932732 -0.72431481 4292861408
5.0421953 1.0691171 -0.72902811 4282863441
5.8139939 1.1957159 -0.84538847 4283322698
5.8823299 1.1722093 -0.85466784 4283911751
5.8797002 1.1342186 -0.85319489 4288711809
5.8972445 1.1001174 -0.85481513 4289432438
5.879549 1.0595218 -0.85113281 4289431669
5.9239426 1.0300411 -0.85687721 4288511344
5.9711204 1.0005462 -0.86306345 4281733387
6.0122991 0.96956497 -0.86836594 4282656547
6.039638 0.9359926 -0.87160635 4280948247
6.0384192 0.89789683 -0.87057531 4293845213
3.4930413 0.49701929 -0.48688087 4284044099
5.8725796 0.79967195 -0.84406281 4279506967
6.0804062 0.79004318 -0.87455219 4290495942
6.09201 0.75357091 -0.87558323 4284244576
6.1004486 0.71663922 -0.87617236 4286289022
5.7105451 0.63526201 -0.81710845 4285894256
5.750731 0.60404116 -0.82255828 4280299308
6.0840621 0.60140145 -0.87190092 4280823354
6.0955162 0.56479055 -0.87307924 4278192145
6.0998521 0.52746397 -0.87322658 4281943638
6.0615664 0.48669326 -0.86704034 4281288543
6.054575 0.44875801 -0.86556739 4281748330
6.0848451 0.41348234 -0.86969155 4282471020
6.0665364 0.37485364 -0.86659843 4288516762
6.0785975 0.33817434 -0.86807138 4292260246
6.0914245 0.3014102 -0.86969155 4291141763
6.0447397 0.26192078 -0.86247426 4291141499
1.802031 0.066184767 -0.2300044 4291345320
1.8182211 0.055620536 -0.23236108 4290749828
1.8373148 0.044934537 -0.23515961 4287065169
1.7485536 0.03197306 -0.22190335 4285157693
1.7239915 0.020926606 -0.21822107 4285553745
1.7043062 0.010215831 -0.21527526 4284830275
1.717195 -0.00023477426 -0.21719003 4283842100
1.7092485 -0.010727044 -0.2160117 4283316532
1.7071725 -0.021191398 -0.21571711 4281345315
1.7040436 -0.031613015 -0.21527526 4281084711
1.7107391 -0.042234372 -0.2163063 4280559906
1.7074819 -0.052641071 -0.21586442 4281017891
5.7227678 -0.24399796 -0.81445724 4288585626
5.98 -0.29168195 -0.85304761 4289307808
5.8309436 -0.32031491 -0.83110118 4289499793
5.797276 -0.35416329 -0.82638782 4291079076
5.7949934 -0.38972801 -0.82638782 4290096534
5.8250461 -0.42766148 -0.83124846 4283321399
5.8775282 -0.46777865 -0.83949679 4291412658
5.9277639 -0.50838721 -0.84745055 4287331445
5.9127135 -0.54366529 -0.84568304 4289634964
5.8984375 -0.57887423 -0.84406281 4292202172
5.867229 -0.61218685 -0.83993864 4293123274
5.8171554 -0.64307725 -0.83301598 4294306259
4.7825184 -0.55863321 -0.67850715 4287990388
4.715189 -0.58013254 -0.66893315 4287725152
4.699769 -0.60753477 -0.6671657 4289568124
4.6812506 -0.63437194 -0.66495633 4289765770
4.6243858 -0.65559965 -0.65700257 4289962890
4.6153836 -0.6832391 -0.65626609 4288711785
4.5720019 -0.70552176 -0.65037447 4287855960
4.5539145 -0.7313695 -0.64831239 4287791194
4.552268 -0.75978577 -0.64875424 4286409810
4.5533681 -0.788715 -0.649638 4280027656
4.7071352 -0.84508961 -0.67364651 4282200620
4.6824117 -0.87034589 -0.67070067 4281545784
5.7503304 -1.1051171 -0.83345783 4293317573
5.7376204 -1.139225 -0.83257407 4291603340
5.7586231 -1.180162 -0.83684552 4281076480
5.8035326 -1.2265077 -0.84479928 4290091144
5.767869 -1.2559967 -0.84052783 4288974983
5.733994 -1.2855272 -0.83655095 4289633414
5.734673 -1.322685 -0.83787656 4289301877
5.7379985 -1.3605835 -0.83964407 4289828223
5.7122436 -1.3915552 -0.83699286 4288578414
5.717032 -1.4299359 -0.83905494 4290158990
5.7024016 -1.4635139 -0.83817118 4286542441
3.6923594 1.0955125 -0.58231181 4288125583
3.7265096 1.0808083 -0.58692837 4282925369
3.9990346 1.1332656 -0.63150215 4292924105
4.467392 1.2363827 -0.70871025 4287988337
4.1174817 1.1124207 -0.64901328 4284764233
4.1185017 1.0856261 -0.64805812 4284439126
4.1690702 1.0716368 -0.65538096 4284574046
4.7568421 1.0989579 -0.74850827 4293189330
4.944591 1.1104038 -0.77843636 4284106812
4.9831424 1.0869842 -0.78368968 4286214759
5.5730948 1.1798496 -0.87984169 4289502865
5.695313 1.1692504 -0.89878553 4288775017
5.6888242 1.1315869 -0.89655685 4288640862
5.7005076 1.0975927 -0.89735281 4292323730
5.7042232 1.0620525 -0.8968752 4291271293
5.709661 1.0268573 -0.896716 4292061060
5.7080722 0.99045444 -0.89544249 4292587915
5.7169638 0.95589995 -0.89592004 4291993984
5.6944542 0.91625708 -0.89130348 4291929221
5.6814313 0.87843436 -0.88827884 4293049780
5.6456985 0.83747578 -0.88159281 4293578686
5.6067457 0.79657269 -0.87442917 4280685067
5.7171817 0.77649772 -0.89162189 4281737502
5.6993194 0.73848689 -0.88796049 4283514164
5.6880665 0.70157003 -0.88541341 4283512618
5.6736336 0.66447484 -0.88238877 4286675803
5.6197109 0.6232332 -0.87299639 4281610787
5.6911798 0.59582788 -0.88398069 4279833100
5.7065187 0.56205672 -0.88589096 4288053632
5.7000289 0.52612489 -0.88429904 4284364592
5.7218385 0.49274835 -0.88732368 4292586137
5.6706281 0.45330745 -0.87856811 4291860346
5.6742873 0.41857716 -0.87872732 4292585862
5.6856141 0.38435119 -0.88016003 4292193420
5.6937776 0.34982052 -0.8811152 4289169516
5.7007456 0.31514972 -0.88191116 4291998862
5.7065163 0.28035817 -0.88254791 4289498481
5.7120738 0.24550767 -0.88318473 4284891951
1.8253574 0.067501456 -0.25580901 4291803815
1.8148825 0.055967592 -0.25405788 4290748029
1.8329568 0.045265574 -0.25692335 4287194185
1.8154327 0.03369198 -0.25405788 4285221686
1.7001059 0.021142159 -0.23543243 4285025335
1.6923057 0.010662162 -0.23415892 4284960832
1.6972755 0.00027784641 -0.23495488 4283644974
1.6972454 -0.010136446 -0.23495488 4283448373
1.6961639 -0.020538175 -0.23479567 4281673762
1.6910707 -0.030854072 -0.23399971 4281609257
1.6997319 -0.04144834 -0.23543243 4281148706
1.6945118 -0.051725183 -0.23463647 4281016607
5.7179937 -0.24573296 -0.88413984 4292849034
5.6838379 -0.27921259 -0.87888652 4293176459
5.65836 -0.31277335 -0.87506592 4292062097
5.6632323 -0.34791073 -0.87618023 4289825916
5.6472011 -0.38172004 -0.87395155 4294103751
5.6742902 -0.41854417 -0.87872732 4293510062
5.6568527 -0.4521721 -0.87633944 4292650626
5.6559396 -0.48704293 -0.87665784 4293438083
5.6508784 -0.52155638 -0.87633944 4292976508
5.6544495 -0.55689746 -0.8774538 4292123252
5.6872544 -0.59538782 -0.88334388 4291141235
4.8631902 -0.53924859 -0.7502594 4287392588
4.8038998 -0.56252909 -0.74118543 4289102701
4.7562656 -0.58655357 -0.73402178 4289499767
4.7202682 -0.61153793 -0.72876847 4289697400
4.684145 -0.63610286 -0.72351515 4290946687
4.6566949 -0.66149795 -0.7196945 4290814843
4.6261821 -0.68614554 -0.71539634 4289368684
4.5984693 -0.71089637 -0.71157575 4288184671
4.5735517 -0.73580384 -0.7082327 4287330392
4.5455818 -0.7599439 -0.7044121 4287265376
4.5427785 -0.78815848 -0.70473045 4281410330
4.6874909 -0.84293836 -0.72924602 4281409812
4.7035828 -0.87566131 -0.73274827 4281541661
5.6161704 -1.0813302 -0.88350308 4292064156
5.6123347 -1.116348 -0.88398069 4292454787
5.5928073 -1.1481819 -0.88191116 4292453249
5.5808282 -1.1814544 -0.8811152 4292785056
5.5898709 -1.2192533 -0.88382149 4279763968
5.3443627 -1.2000856 -0.84450108 4293117891
5.5975738 -1.2930925 -0.88764209 4289891966
5.5645604 -1.3214816 -0.88350308 4288509794
5.5323696 -1.3497487 -0.87952328 4288377955
5.5306878 -1.3853488 -0.88063765 4288511594
5.5259075 -1.4202417 -0.8812744 4284369976
5.5266352 -1.456638 -0.88286632 4283452740
4.0537019 -1.1754344 -0.64184964 4285690472
4.048306 -1.200847 -0.64216805 4285490783
3.6207669 1.0743734 -0.61616856 4281741360
3.6405375 1.0559834 -0.61856115 4287861649
4.1275177 1.1699896 -0.7052061 4294505186
4.1820936 1.1577985 -0.71375096 4282198556
4.1282487 1.115648 -0.70281357 4290620080
4.1207266 1.0865246 -0.70025009 4283981152
4.7270269 1.1232464 -0.80381387 4281615930
5.093801 1.177519 -0.86790043 4286212966
5.0403705 1.132619 -0.85713387 4287593340
5.0404873 1.1001983 -0.8559376 4290029473
5.1483474 1.0907141 -0.87388182 4290421910
5.6249399 1.1557754 -0.95710886 4287392600
5.6241951 1.119699 -0.9557417 4294956231
5.631927 1.0853552 -0.95591259 4294033837
5.6394491 1.0509585 -0.95608348 4294360741
5.6341558 1.0142387 -0.95403272 4294557607
5.6237707 0.97677934 -0.95112747 4294821807
5.6189694 0.94046277 -0.9492476 4294691500
5.627552 0.90643841 -0.94976026 4294493871
5.6125612 0.86872226 -0.94617146 4294363839
5.6051159 0.83238369 -0.94394976 4282525468
5.6149955 0.79867047 -0.94480425 4282131228
5.6100273 0.76287282 -0.94309527 4283051301
5.6185112 0.72894388 -0.94377887 4283774764
5.6179891 0.6938507 -0.94292438 4289894026
5.6015906 0.6569519 -0.93933553 4282393884
5.5996408 0.62191504 -0.93831015 4279831045
5.609231 0.58816236 -0.93933553 4292924365
5.6176367 0.55421841 -0.94019002 4293381313
5.6209316 0.51973879 -0.94019002 4293774523
5.6210699 0.4849849 -0.93967736 4292718737
5.6209931 0.4502489 -0.93916464 4292057727
5.5971203 0.41378379 -0.9345504 4284954400
5.6015196 0.3795664 -0.93489224 4284693549
5.6066933 0.34537131 -0.9354049 4282788382
5.5969019 0.31030577 -0.93335414 4282854176
5.6006689 0.27605543 -0.93369591 4281933073
5.5924139 0.24125846 -0.93198693 4283182879
1.8138798 0.066313393 -0.27591181 4290549628
1.796526 0.054631788 -0.27283564 4287458393
1.8293318 0.044417486 -0.27847525 4281340936
1.7615969 0.031915493 -0.26668334 4281999126
1.702647 0.020358549 -0.25642949 4286671710
1.6928871 0.0098468112 -0.25472051 4284367925
1.6929158 -0.00054073497 -0.25472051 4284368695
1.6928806 -0.010928261 -0.25472051 4282659879
1.6908112 -0.021291923 -0.25437874 4281345824
1.6896636 -0.031648375 -0.25420782 4281214751
1.7061826 -0.042420212 -0.2571131 4281279520
5.6982269 -0.2089313 -0.95010209 4282331441
5.6013508 -0.23982272 -0.93352503 4282526517
5.5889487 -0.27365965 -0.93164515 4281343514
5.585197 -0.3078396 -0.93130338 4280226313
5.5871367 -0.34234414 -0.93198693 4281214238
5.5583882 -0.3748354 -0.92737275 4284043077
5.5825152 -0.41088113 -0.93198693 4282066977
5.5847998 -0.44551778 -0.93284142 4283248169
5.5898142 -0.48045045 -0.93420863 4283445285
5.5946107 -0.51546139 -0.93557578 4282654738
5.5844779 -0.54910612 -0.93437952 4283906351
5.5770845 -0.58295262 -0.93369591 4291011730
4.9084396 -0.54366869 -0.81765658 4290022253
4.8903317 -0.57206243 -0.81509316 4289232219
4.802628 -0.59171689 -0.80039597 4286802256
4.8125877 -0.62294155 -0.8027885 4290026105
4.6710057 -0.63381368 -0.77869201 4292789407
4.6543469 -0.66066551 -0.7764703 4290683781
4.6394844 -0.68762529 -0.77459043 4289106292
4.6118073 -0.71247518 -0.77048892 4288580461
4.6073484 -0.74075925 -0.77048892 4287857767
4.591054 -0.76707 -0.76843816 4282660647
4.588203 -0.79556191 -0.76877993 4281673759
4.5832348 -0.82369965 -0.76877993 4281344284
4.690465 -0.8726849 -0.78860402 4284171845
5.6622849 -1.0892363 -0.96121037 4282658863
5.660327 -1.1249182 -0.96206486 4282461738
5.6427002 -1.1574525 -0.96018505 4281934109
5.6277804 -1.190424 -0.95881784 4280222208
5.6107426 -1.2228367 -0.95710886 4281669389
5.6127477 -1.259396 -0.95881784 4283777585
5.11623 -1.1811103 -0.87183106 4280487170
5.5498943 -1.3170402 -0.95044386 4292524959
5.4699111 -1.3335803 -0.93762654 4294694057
5.4243469 -1.3577949 -0.93096155 4287984210
5.4054155 -1.3883585 -0.92908168 4289298792
5.3663039 -1.413475 -0.92361295 4288117605
5.3727508 -1.4504811 -0.92634732 4289044369
4.0332265 -1.1157464 -0.68692011 4292726734
4.0263047 -1.1404727 -0.68692011 4291080618
4.0353203 -1.1698154 -0.68982536 4293843136
4.0072823 -1.1883963 -0.68606561 4287461475
4.0546074 -1.2295308 -0.69597763 4284241227
4.030045 -1.2491403 -0.69290149 4282336052
3.5221872 1.0929142 -0.64770973 4285362267
3.5316491 1.0721383 -0.64825904 4281610790
4.1733541 1.211146 -0.7701993 4287859846
4.1409822 1.174255 -0.76250935 4288118904
4.1225276 1.1417421 -0.75756586 4285618259
4.1408443 1.1195031 -0.75976294 4285820777
4.1542902 1.0958289 -0.76104462 4282797128
4.5336099 1.1365339 -0.83135253 4286415743
4.5481386 1.1105597 -0.83281726 4285752147
5.2951732 1.2585285 -0.97453171 4287457615
5.2731032 1.2191514 -0.9688558 4287260764
5.0598722 1.1372077 -0.92674422 4293643714
5.0609913 1.1048819 -0.92564571 4288578164
5.3812084 1.1402185 -0.98533422 4282657572
5.5441074 1.1392238 -1.0149953 4281341465
5.5644922 1.1078709 -1.0175587 4280750607
5.5586352 1.0712894 -1.0151784 4281604887
5.5660706 1.0373422 -1.0153615 4280354050
5.636189 1.0146616 -1.0274458 4280225813
5.6762104 0.98594564 -1.033854 4279964446
5.7073627 0.95531654 -1.0386144 4293058019
5.697588 0.91777843 -1.0356849 4279834654
5.6797948 0.87919372 -1.0312907 4280495933
5.6967521 0.84605885 -1.0334878 4280298554
5.7076759 0.81191856 -1.0345864 4279970365
5.7057314 0.77595478 -1.0333047 4280299591
5.6977115 0.73928684 -1.0309246 4280036421
5.7011642 0.70419204 -1.0307415 4280102215
5.7024484 0.6688537 -1.0301921 4280431692
5.6956978 0.63265836 -1.0281781 4284441454
5.6936049 0.59708357 -1.0270796 4279902765
5.7118368 0.56358403 -1.0298259 4280169294
5.7132297 0.52834535 -1.0294597 4280430920
5.7163644 0.49327964 -1.0294597 4280167997
5.6830249 0.45529306 -1.0226853 4287004535
5.7023783 0.42164537 -1.0257978 4284498739
5.7009349 0.38638264 -1.0250655 4284175176
5.6894617 0.35054961 -1.0225022 4282991932
1.8505396 0.10288619 -0.30605727 4289563252
1.8511361 0.091529541 -0.30605727 4289496420
1.8467518 0.079957865 -0.30514181 4290680444
1.8314891 0.06804423 -0.30221233 4288575838
1.8112369 0.05616961 -0.29836735 4286801476
1.8095818 0.045006543 -0.29800117 4287260751
1.7813188 0.033374432 -0.29269147 4287655772
1.7392204 0.021920469 -0.28481844 4285551940
1.7176944 0.011113334 -0.28079039 4284959803
1.7108486 0.00057279965 -0.27950874 4284433205
1.7147522 -0.0099484809 -0.2802411 4283842100
1.7087606 -0.020398073 -0.27914253 4281409561
1.7017229 -0.030756529 -0.27786088 4281345826
1.731969 -0.04194212 -0.28353679 4281082654
1.7189047 -0.052177854 -0.28115657 4280753695
5.68325 -0.2432465 -1.020305 4280495935
5.6836138 -0.27820995 -1.0206712 4294047474
5.60818 -0.30901706 -1.0069393 4284506451
5.6797719 -0.34793571 -1.0206712 4286414706
5.6245637 -0.37920493 -1.0107843 4286152563
5.6662502 -0.41695908 -1.0190234 4286875007
5.6694655 -0.4521881 -1.0201221 4286940801
5.6665845 -0.48696673 -1.0201221 4287072899
5.660553 -0.52145636 -1.0195727 4287928972
5.6680088 -0.5572378 -1.0215868 4288125074
5.6742606 -0.59302813 -1.0234177 4287005566
5.6724696 -0.62805003 -1.0237839 4290035631
5.6763206 -0.66375786 -1.0252486 4282208867
5.6692133 -0.69821388 -1.0246993 4291613394
4.7454362 -0.61396128 -0.85204208 4288055152
4.6753359 -0.63407767 -0.83959174 4289435768
4.6898513 -0.66537833 -0.84307051 4281080336
4.7041569 -0.696881 -0.84654927 4281606178
4.6959062 -0.72513157 -0.84581691 4282527788
4.6544847 -0.74800092 -0.83885938 4282989360
4.6284747 -0.77298176 -0.8348313 4283252540
4.6003976 -0.79733592 -0.83043706 4284371538
4.4793077 -0.80467957 -0.80846584 4294964465
4.5390415 -0.84419823 -0.82073313 4288447093
4.5048151 -0.86646038 -0.81524032 4292527029
4.5167699 -0.89753544 -0.81853598 4294369231
4.4861388 -0.92009526 -0.81377554 4293318083
4.467905 -0.94495887 -0.81139535 4289633925
5.4811502 -1.1945323 -1.0056576 4291209099
5.4794731 -1.2294332 -1.0067562 4288050003
5.4181848 -1.2506456 -0.99650282 4289037930
5.4352779 -1.2897707 -1.0012634 4286339397
5.3775964 -1.3109852 -0.99174243 4283575589
4.8592434 -1.2162156 -0.89378744 4283313699
5.2058988 -1.3370055 -0.96189815 4285817430
5.2888603 -1.3929667 -0.9794752 4281343254
5.2697735 -1.4225732 -0.97746116 4285159240
4.0689745 -1.1251584 -0.7471295 4290422940
4.0553732 -1.1482285 -0.74584788 4284762424
4.0359764 -1.1695322 -0.74346763 4283446051
4.0956435 -1.2141186 -0.75646728 4283255104
3.3605328 1.0660428 -0.66005337 4286279269
3.4147811 1.0602522 -0.66997677 4283583047
3.9972832 1.187735 -0.78789032 4293254870
4.1137533 1.1949552 -0.81046122 4282726701
4.0842099 1.1592356 -0.80287272 4292399810
4.1148753 1.1407108 -0.80773711 4286080863
4.1407323 1.1205709 -0.81162864 4285293402
4.1475301 1.0951427 -0.81162864 4284834393
4.1779175 1.0757947 -0.81649309 4287992710
4.1815858 1.0494221 -0.81590933 4282795064
5.2598109 1.2860717 -1.0348082 4291537036
5.2532902 1.2503638 -1.0318896 4292457875
5.1232629 1.186215 -1.0038705 4282197536
5.1122637 1.1506605 -1.0001736 4290816417
5.1652217 1.1293374 -1.0095133 4280748807
5.3840976 1.1426724 -1.0525147 4282918955
5.3958111 1.1106045 -1.0534875 4282853671
5.4150286 1.0799723 -1.056017 4283775277
5.4331098 1.0489596 -1.058352 4291869097
5.6120329 1.0478653 -1.0931813 4279305992
5.6318712 1.0158511 -1.0959053 4280888379
5.6650553 0.98599041 -1.1013534 4280033313
5.6855087 0.95364863 -1.1042721 4283849056
3.3876221 0.54638606 -0.64137399 4279571481
5.709384 0.88576436 -1.1068016 4279644997
5.7147112 0.85071546 -1.1068016 4279841610
5.7159395 0.81507999 -1.1060233 4279906894
5.7120862 0.77879798 -1.1042721 4279973459
5.711894 0.74310088 -1.1032993 4279710285
5.7153726 0.70791858 -1.1031046 4280237401
5.7147379 0.67226237 -1.1021317 4280169294
5.7099819 0.63620538 -1.1003805 4282994527
5.713778 0.60115767 -1.1003805 4280696143
