# .PCD v0.7 - Point Cloud Data file format
VERSION 0.7
FIELDS x y z rgb
SIZE 4 4 4 4
TYPE F F F U
COUNT 1 1 1 1
WIDTH 1099
HEIGHT 1
VIEWPOINT 0 0 0 1 0 0 0
POINTS 1099
DATA ascii
4.5571866 -0.73270726 -0.53432834 4284174137
4.4811478 -0.74873525 -0.52534336 4280292877
4.56252 -0.79111528 -0.5361746 4282068769
4.7431698 -0.85240173 -0.55956012 4281738777
4.7515101 -0.88402724 -0.56128329 4280687632
4.7606149 -0.91597432 -0.56312948 4280820512
4.791894 -0.95251107 -0.5678066 4278846983
4.7985983 -0.98448539 -0.56940669 4280822313
4.8245087 -1.0206814 -0.57346839 4288916910
4.0161076 1.1388565 -0.53126717 4288652695
4.0889082 1.1324341 -0.54059577 4289900195
4.0125637 1.0848339 -0.52883363 4280886304
4.1149516 1.0854559 -0.54235333 4287928471
4.1100192 1.0572256 -0.54073095 4287731607
4.3624701 1.0936458 -0.57534134 4287532945
4.3036447 1.0508808 -0.56614798 4287861649
5.0076637 1.125478 -0.6620025 4281609511
5.0260916 1.0972655 -0.66362488 4284044366
5.1364455 1.0883741 -0.67809093 4287532684
6.0148849 1.1209555 -0.79652333 4286811006
6.0353022 1.0864846 -0.79841608 4286612338
6.0574746 1.0521442 -0.80057919 4286083936
6.0706573 1.0161009 -0.80152559 4287791218
6.0386267 0.97269022 -0.79625291 4288382066
6.0816898 0.94137657 -0.80139041 4288316277
6.1020527 0.90622479 -0.80341834 4286541414
5.8259645 0.8287372 -0.76461685 4288647560
3.5306051 0.48029566 -0.44785076 4281213978
6.2051501 0.80509317 -0.81545085 4279966750
6.2276731 0.76918906 -0.81788439 4279834654
6.2391648 0.7317698 -0.81883079 4284047967
5.8565226 0.65051138 -0.76569843 4285497966
5.8466077 0.61311835 -0.76380569 4278588172
6.2318563 0.61485869 -0.81612682 4280759881
6.2434049 0.57733852 -0.81720841 4283851638
6.2438684 0.53876352 -0.8168028 4281681236
6.2302666 0.49909773 -0.8145045 4281554019
6.214437 0.45947322 -0.81193572 4281686896
6.2230706 0.42173511 -0.81274694 4281883502
6.227519 0.38366485 -0.81301731 4288460220
6.2248096 0.34517232 -0.81234133 4289112218
6.232748 0.30726343 -0.81315249 4287133793
1.8918232 0.081899859 -0.22004415 4289503119
1.8101082 0.067254387 -0.20882282 4287724388
1.8184096 0.05639052 -0.20990439 4284106034
1.8216929 0.045305178 -0.21030998 4283974964
1.7605163 0.032989189 -0.20192778 4282988842
1.6972781 0.021401158 -0.19327518 4282529068
1.6993591 0.010998828 -0.19354558 4281740323
1.6924586 0.00057079364 -0.19259921 4280951581
1.6924305 -0.0098139495 -0.19259921 4280623390
1.6834217 -0.020089865 -0.19138244 4280492576
1.679304 -0.030346252 -0.19084165 4280623392
1.6771053 -0.04060128 -0.19057125 4280491547
1.6847475 -0.05113332 -0.19165283 4280425500
6.1915708 -0.2269863 -0.80706865 4286087550
6.2039204 -0.26556692 -0.80896139 4284116062
6.0062275 -0.2940236 -0.78219247 4289704607
5.9548445 -0.32814258 -0.77543259 4290231727
6.1297421 -0.37553096 -0.79963285 4288522661
6.1668658 -0.41580397 -0.80504072 4290101693
6.1128154 -0.44985068 -0.79801047 4289971386
6.1296935 -0.48892659 -0.80071443 4287735453
6.0900521 -0.52338713 -0.79571211 4288987316
6.172564 -0.56865847 -0.80747426 4288462262
6.1847348 -0.60807401 -0.80963737 4288922562
6.1759605 -0.64549613 -0.80896139 4293787647
6.1945333 -0.68588829 -0.81207091 4280032535
4.755383 -0.55600536 -0.61495399 4284239162
4.744998 -0.58432513 -0.61400765 4284436537
4.7197056 -0.61063021 -0.61103332 4281016857
4.6471429 -0.63025165 -0.60156953 4288653988
4.6618266 -0.66140002 -0.60413826 4286608502
4.6027942 -0.68185651 -0.59656721 4284434490
4.5740442 -0.70630372 -0.59318733 4284041009
4.5334282 -0.72853637 -0.58818501 4283778609
4.5278959 -0.75617599 -0.58804983 4283450170
4.5124316 -0.78208232 -0.58656269 4280228372
4.6908846 -0.84270656 -0.61197966 4281675050
6.0474162 -1.1248653 -0.8009848 4281875266
5.986887 -1.1516528 -0.793549 4286610557
5.9388924 -1.1802518 -0.78787071 4288189579
4.7813802 -0.98067456 -0.62766248 4294700524
5.8745246 -1.242582 -0.7809757 4280818453
5.9316506 -1.2927443 -0.79003388 4287862932
5.9187732 -1.3280309 -0.7893579 4285889393
5.8989282 -1.3616481 -0.78773552 4286613376
3.8415706 1.0895722 -0.55610788 4289176222
4.4048057 1.2203451 -0.64212614 4283187777
4.118156 1.113686 -0.59676033 4283255114
4.1115236 1.08486 -0.59469825 4281677622
4.2244215 1.0869993 -0.61104763 4289376428
4.2837739 1.0743052 -0.61914861 4285758837
5.0062442 1.1581757 -0.72667146 4287928473
4.9727287 1.1183122 -0.72048521 4286940290
4.9959235 1.0913714 -0.7229892 4283715665
5.0344548 1.067474 -0.72784978 4288914337
5.7975245 1.1923255 -0.84288448 4287466885
5.8270411 1.1611803 -0.84627223 4286873716
5.8874693 1.1357188 -0.85437322 4289238917
5.9137731 1.1032041 -0.85731906 4288577379
5.8853893 1.0605755 -0.85201657 4290944137
5.9112749 1.027836 -0.85496241 4283773737
5.9418564 0.99563688 -0.85864466 4281144848
5.9800763 0.96436226 -0.8635053 4281475104
6.0200901 0.93295932 -0.86866051 4280686103
5.9249353 0.88099986 -0.85348946 4290096808
5.7020798 0.81208813 -0.81917053 4284243026
5.9578414 0.81129926 -0.85687721 4279770917
6.0627513 0.78774583 -0.87190092 4285166207
6.0674701 0.75053066 -0.87190092 4283129185
6.0031996 0.7051962 -0.8615905 4284379751
5.7164431 0.63591933 -0.81799221 4283259213
5.7782736 0.60693979 -0.82668245 4280627252
6.0555177 0.59857434 -0.86762947 4283126370
6.0561218 0.56113285 -0.86718762 4281350472
6.0673337 0.52464581 -0.86836594 4282011488
6.0507212 0.48582038 -0.8654201 4282210413
6.0289292 0.44685221 -0.86173779 4282014309
6.0295839 0.40971652 -0.86144322 4285300862
6.0537028 0.37405816 -0.86468363 4286081378
6.0548959 0.33685118 -0.86453635 4292722872
6.0588245 0.29979083 -0.86483091 4292527538
6.0506687 0.26217884 -0.86335802 4292197029
1.7901702 0.065741427 -0.22823691 4286676086
1.8073465 0.055280864 -0.23074085 4283843891
1.8491802 0.045232292 -0.23692709 4283909425
1.7436091 0.031879332 -0.22116691 4283514924
1.6972882 0.020584324 -0.21424422 4282594600
1.6904593 0.010123312 -0.21321318 4281148956
1.6835659 -0.00025311613 -0.21218213 4280885788
1.690456 -0.010621984 -0.21321318 4280557597
1.6775018 -0.02084345 -0.21129838 4280557088
1.6793202 -0.031171348 -0.21159297 4280753695
1.6781085 -0.041451141 -0.21144567 4280556570
1.6975955 -0.052343063 -0.2143915 4280360220
5.5897288 -0.20400126 -0.79442561 4292075465
5.8107181 -0.24772981 -0.82756615 4288127620
5.8663883 -0.28616267 -0.8361091 4291677368
5.826993 -0.3200987 -0.83051199 4289634712
5.7795053 -0.35308123 -0.82373661 4285752928
5.7841377 -0.38900015 -0.82476765 4285689704
5.8092628 -0.42650589 -0.82889181 4290426539
5.8163967 -0.46292558 -0.8303647 4284238908
5.7927513 -0.49683481 -0.82727158 4284305472
5.807323 -0.53399581 -0.82992285 4289110932
5.7852335 -0.56778693 -0.8271243 4290295717
5.7826247 -0.60337621 -0.82727158 4291611315
5.7709484 -0.63797849 -0.82609326 4287200361
4.7540278 -0.55531228 -0.6742357 4283977282
4.7485671 -0.5842309 -0.67394108 4284305984
4.7144833 -0.60943317 -0.66937506 4284305471
4.6939926 -0.63609546 -0.66687107 4283909944
4.621448 -0.65518391 -0.65656072 4282396194
4.6095128 -0.68237156 -0.65538234 4283382830
4.573957 -0.705823 -0.65066904 4283843891
4.5509844 -0.73089969 -0.64787048 4283385652
4.5317798 -0.75637156 -0.64566112 4282004520
4.5299773 -0.78466946 -0.64610296 4279635717
4.6993465 -0.84369326 -0.67246819 4281348393
5.7482514 -1.0681882 -0.83213222 4283057474
5.7464447 -1.1043712 -0.8328687 4291078560
5.7385902 -1.1394174 -0.83272135 4289959560
5.7586231 -1.180162 -0.83684552 4280485376
5.7357893 -1.2122049 -0.83448887 4287328608
5.7301764 -1.2477967 -0.83478343 4279633666
5.7282028 -1.2842301 -0.83566719 4288843646
5.7327452 -1.3222408 -0.83758199 4287986792
5.7274117 -1.3580755 -0.8380239 4288578929
5.7016721 -1.3889822 -0.83537263 4287197792
5.7016783 -1.4260989 -0.83669823 4289962129
5.6899467 -1.46032 -0.83625638 4283519303
3.7293541 1.081633 -0.58740598 4281739301
4.1310668 1.1706681 -0.65362984 4290820782
4.3446479 1.2024236 -0.68817449 4279702543
4.1355906 1.1173115 -0.65203792 4290098100
4.1347308 1.0899025 -0.65076441 4286676866
4.8299489 1.1158414 -0.76060688 4292138447
5.0399551 1.131812 -0.79419637 4284636755
5.027513 1.0966594 -0.79101253 4284307540
5.5489483 1.1747395 -0.87586188 4290619810
5.6721029 1.1644869 -0.89496493 4289167986
5.6762366 1.129084 -0.89448732 4290220923
5.6830573 1.094234 -0.89448732 4288180564
5.6945171 1.0602461 -0.89528328 4290942839
5.6902275 1.0233636 -0.89353222 4291600254
5.7207174 0.99264777 -0.89751196 4290746741
5.7198849 0.95638818 -0.89639765 4290550389
5.7081003 0.91845185 -0.89353222 4290682236
5.6726503 0.87707728 -0.88684613 4289696119
5.6183548 0.83342153 -0.8771354 4284372545
3.5003588 0.4974575 -0.5313704 4280953895
5.6966376 0.77370894 -0.88827884 4282460453
5.7042146 0.73912084 -0.88875645 4284959300
5.702764 0.70338184 -0.88780129 4287855986
5.6579452 0.66263855 -0.87984169 4282991413
5.6206923 0.62334192 -0.87315559 4281215000
5.6911798 0.59582788 -0.88398069 4281216807
5.691781 0.56060618 -0.88350308 4281673759
5.6921644 0.52539951 -0.88302553 4291539101
5.6805267 0.4891935 -0.88063765 4288709222
5.7119608 0.45660871 -0.8852542 4290483065
5.7294235 0.42264065 -0.88764209 4290549626
5.691524 0.38475031 -0.8811152 4291208328
5.696734 0.35000193 -0.88159281 4288115806
5.695817 0.3148776 -0.8811152 4288708975
5.6877809 0.279439 -0.87952328 4286471251
5.7081285 0.24533837 -0.88254791 4281802778
1.8036526 0.066703439 -0.25230679 4286805855
1.79416 0.055332992 -0.25071487 4283644707
1.8369046 0.04536223 -0.2575601 4283317288
1.7562077 0.032605536 -0.24450637 4282725923
1.7277467 0.021479569 -0.23988982 4282594086
1.7100757 0.010770037 -0.23702435 4281213727
1.7041863 0.00027739411 -0.23606922 4280753949
1.7021815 -0.010167057 -0.23575084 4280426013
1.6941895 -0.020513816 -0.2344773 4280491806
1.6920577 -0.030872311 -0.23415892 4280360990
1.6967711 -0.041375462 -0.23495488 4280294429
5.6765676 -0.24394985 -0.8774538 4291075454
5.6680613 -0.27843648 -0.87633944 4290285952
5.6425881 -0.31190044 -0.87251884 4292193959
5.6523929 -0.34724411 -0.87442917 4285418563
5.6353812 -0.38092026 -0.87204129 4286668109
5.6565676 -0.41723573 -0.87586188 4290220671
5.6627574 -0.4526445 -0.8772946 4290548859
5.6539726 -0.48687339 -0.87633944 4290877310
5.6548109 -0.52191955 -0.87697619 4289231967
5.6328349 -0.55476719 -0.87395155 4290679417
5.6411066 -0.59055346 -0.87586188 4292391583
4.8141289 -0.53380454 -0.7422998 4288182629
4.7989969 -0.56195462 -0.74038947 4280619008
4.747447 -0.58546531 -0.73258907 4284437309
4.7212477 -0.61166489 -0.72892767 4284568893
4.6870799 -0.63650161 -0.72399271 4286081103
4.6645145 -0.66260934 -0.72096807 4287198557
4.6437597 -0.68875414 -0.71826178 4284436788
4.6179824 -0.71391463 -0.71475959 4284043060
4.5920711 -0.73878485 -0.71125734 4284043582
4.5747938 -0.76483011 -0.70918787 4283977536
4.554451 -0.79018462 -0.70664078 4281608483
4.7312155 -0.85080487 -0.73640966 4280358927
4.691936 -0.87349206 -0.73083794 4280422663
5.6016288 -1.0785294 -0.8811152 4289432438
5.5890965 -1.1117241 -0.88016003 4292129433
5.5986099 -1.1493735 -0.88286632 4292260506
5.5837255 -1.182068 -0.88159281 4291407263
5.5792608 -1.2169383 -0.88207036 4280160008
5.4724746 -1.2288629 -0.8656736 4289633424
5.5792975 -1.2888691 -0.88461745 4288446830
5.5674419 -1.3221661 -0.88398069 4287984737
5.5275745 -1.3485783 -0.87872732 4287593061
5.5335603 -1.3860686 -0.8811152 4289038718
5.5239954 -1.4197501 -0.88095599 4287068010
5.5247259 -1.4561347 -0.88254791 4283782223
4.0660281 -1.1790098 -0.64391911 4285819758
4.0653424 -1.2059022 -0.64503348 4283979602
4.0321045 -1.2772471 -0.64328235 4281679689
3.622591 1.0991471 -0.61770666 4291478461
3.6377678 1.0794237 -0.61924469 4280491547
4.1085601 1.1646103 -0.70178813 4288190868
4.1175275 1.1399049 -0.70212996 4282268735
4.1320534 1.1166773 -0.70349711 4283256917
4.1426377 1.0923084 -0.70418072 4287272083
4.5927482 1.1211221 -0.78108454 4288716182
4.6973119 1.116178 -0.79851609 4282594864
5.0611639 1.1699666 -0.86208993 4284368450
5.0538282 1.1356463 -0.85952646 4292395451
5.0549259 1.1033533 -0.85850108 4286211675
5.2071424 1.1031839 -0.88430655 4293776589
5.6230097 1.1553783 -0.95676708 4292130739
5.6183972 1.1185435 -0.95471632 4291013020
5.62322 1.0836753 -0.95437449 4289434758
5.6317005 1.0495129 -0.95471632 4288183666
5.636095 1.0145882 -0.95437449 4286605659
5.6237707 0.97677934 -0.95112747 4286078290
5.6199408 0.94062567 -0.94941849 4285356368
5.6187973 0.9050265 -0.94822222 4283711543
5.6193767 0.86977863 -0.94736773 4286475368
3.4298739 0.50889242 -0.56250679 4288514935
5.6091428 0.79783678 -0.94377887 4281803554
5.6061225 0.76234096 -0.94241172 4282198823
5.6048322 0.7271663 -0.94138628 4282460706
5.6033216 0.69203609 -0.9403609 4282131995
5.6015906 0.6569519 -0.93933553 4281474840
5.5976825 0.62169713 -0.93796837 4279371783
5.6004119 0.58723575 -0.93779749 4288056459
5.6078315 0.553249 -0.93848103 4280489485
5.6130829 0.51901144 -0.93882287 4280752145
5.596529 0.48286241 -0.9354049 4280554252
5.6062613 0.44906577 -0.93660116 4281605138
5.5912251 0.41334671 -0.93352503 4284367414
5.5926723 0.37896505 -0.93335414 4282460700
5.5988259 0.34488505 -0.93403774 4281672473
5.5949345 0.31019628 -0.93301237 4281606427
5.5809875 0.27508122 -0.930278 4281409047
5.6022577 0.24168518 -0.93369591 4282462751
1.8069875 0.066056974 -0.27471551 4284694837
1.7975107 0.054662377 -0.27300656 4281474840
1.8145571 0.044049304 -0.27591181 4279633152
1.7606118 0.031896994 -0.26651245 4280094215
1.7371293 0.020794524 -0.26241091 4282067490
1.7303272 0.010090431 -0.26121461 4281212959
1.7195185 -0.00053086848 -0.25933474 4280951328
1.712586 -0.011041865 -0.25813848 4280491547
1.7046043 -0.021456081 -0.2567713 4280360987
1.7024704 -0.031879392 -0.25642949 4280426780
1.6953477 -0.04215825 -0.25523323 4280163609
1.6950572 -0.052559912 -0.25523323 4280163870
5.5731783 -0.20437193 -0.92839813 4282330928
5.5747724 -0.23869029 -0.92891079 4282658353
5.5820599 -0.27332377 -0.93044889 4282328871
5.5822453 -0.30767754 -0.93079066 4281670679
5.5910707 -0.34258437 -0.93267053 4285485903
5.5583882 -0.3748354 -0.92737275 4288580484
5.6041331 -0.41246775 -0.93574667 4281146389
5.6123009 -0.44770586 -0.93762654 4280949010
5.6212282 -0.48314393 -0.93967736 4281146389
5.6289511 -0.51861817 -0.94155723 4281145878
5.606051 -0.55122274 -0.93813926 4281475100
5.6172633 -0.5871439 -0.94070274 4284039227
4.9084396 -0.54366869 -0.81765658 4285023288
4.8736949 -0.57012028 -0.81218785 4279960064
4.8094735 -0.59255862 -0.80159223 4281606169
4.7920671 -0.6202904 -0.7991997 4285225033
4.6885805 -0.63619393 -0.78176814 4285619525
4.6816621 -0.66453588 -0.78125542 4286474833
4.6414337 -0.68791372 -0.77493227 4285226307
4.6273875 -0.71487814 -0.77322328 4284832063
4.6073484 -0.74075925 -0.77048892 4284305984
4.5774479 -0.76480025 -0.76604557 4280292625
4.588203 -0.79556191 -0.76877993 4280227351
4.5851746 -0.82404774 -0.76912171 4279503628
4.6914339 -0.8728649 -0.78877491 4282070579
5.6651874 -1.089794 -0.96172309 4280689185
5.6632261 -1.1254939 -0.96257758 4279372042
5.6214652 -1.1531011 -0.95642531 4279437829
5.6036806 -1.1853312 -0.95454544 4279044101
5.5963016 -1.2196925 -0.95454544 4279307534
5.5646763 -1.2486198 -0.95027298 4280423958
4.9222922 -1.1363841 -0.83730978 4278910976
5.5364723 -1.313858 -0.94805133 4288772194
5.4498076 -1.3286835 -0.93403774 4291534465
5.4300818 -1.3592292 -0.93198693 4288179806
5.3844194 -1.3829705 -0.92532194 4288247135
5.384408 -1.4182395 -0.92686003 4288052074
5.3698969 -1.4497112 -0.92583466 4287266935
4.0541201 -1.1215199 -0.69067985 4288518041
3.9845898 -1.1286693 -0.67940062 4282660920
4.0211239 -1.1657044 -0.68726188 4283777085
4.0157847 -1.1909152 -0.68760365 4282003495
4.0630941 -1.2321018 -0.69751573 4288715929
4.0451045 -1.2538034 -0.69563586 4282929234
3.5127978 1.0900017 -0.64587879 4283648330
3.5297678 1.0715673 -0.64789283 4281741875
4.1336989 1.1996416 -0.76250935 4283189819
4.1258488 1.1699651 -0.7595799 4285491294
4.1386347 1.1462013 -0.76067841 4286216564
4.134201 1.1177076 -0.75848132 4285690995
4.1599936 1.0973328 -0.76214319 4285494134
4.1057124 1.0561181 -0.75042522 4285691771
4.4945121 1.1267358 -0.82384568 4290031282
5.4105539 1.321068 -0.99815077 4290421146
5.1890054 1.2333031 -0.95420825 4288579709
5.1878548 1.1994482 -0.95256042 4279831306
5.0944028 1.1449658 -0.9333356 4292266175
5.0235319 1.096707 -0.91850501 4285686873
5.5235486 1.1703683 -1.0124321 4280554766
5.5402555 1.1384326 -1.014263 4280488975
5.5683489 1.1086385 -1.0182911 4280160010
5.5798726 1.0753809 -1.0192065 4281210136
5.5506072 1.0344614 -1.0124321 4280357651
5.6632805 1.0195369 -1.0325724 4279044108
5.7023625 0.99048644 -1.0387975 4279636766
5.6996059 0.95401865 -1.0371497 4278190092
5.7072935 0.91934121 -1.0375159 4287270292
5.7128272 0.88430458 -1.0375159 4280165677
5.707449 0.84764677 -1.0355018 4279903280
5.7154627 0.81302565 -1.0360512 4279771442
5.7086539 0.77635205 -1.033854 4279444274
5.704536 0.74017185 -1.0322062 4279772469
5.7031155 0.70443296 -1.0311077 4279706677
5.6965899 0.66816694 -1.0290936 4278983983
5.70156 0.63330919 -1.0292767 4285954430
5.7102265 0.59882551 -1.0301921 4279706152
5.7147717 0.56387341 -1.0303752 4279773499
5.6995249 0.52707887 -1.0268965 4280167219
5.7124462 0.49294183 -1.0287274 4282666316
5.6810646 0.45513615 -1.0223191 4282860605
5.6984568 0.42135566 -1.0250655 4281806115
5.6930881 0.38585135 -1.0236008 4284569168
5.6767054 0.3497645 -1.0201221 4286346094
1.8623188 0.10353862 -0.30825442 4288380261
1.8639009 0.092158027 -0.3084375 4284563762
1.8693421 0.080931216 -0.30935296 4283906864
1.8314891 0.06804423 -0.30221233 4282195733
1.8200805 0.056441981 -0.30001521 4283379740
1.7889429 0.044497635 -0.29415622 4286669643
1.7587115 0.032955769 -0.28848031 4285222963
1.7470846 0.022017838 -0.2862832 4283316518
1.7176944 0.011113334 -0.28079039 4281016859
1.7059331 0.00057226344 -0.27859327 4280952097
1.7000061 -0.0098596076 -0.2774947 4280491547
1.6930323 -0.020206764 -0.27621305 4280491806
1.6859961 -0.030468715 -0.2749314 4280360988
1.6906912 -0.040933315 -0.27584687 4280491544
1.6943388 -0.051426627 -0.27657923 4280228632
5.6846356 -0.20837016 -1.020305 4280098857
5.6901255 -0.24354124 -1.0215868 4278718752
5.6747766 -0.27777678 -1.0190234 4284046945
5.63272 -0.31037095 -1.0115166 4284309593
5.6729031 -0.34751445 -1.0193896 4283585358
5.6176977 -0.37874156 -1.0095025 4284374622
5.6750741 -0.41760901 -1.0206712 4284638307
5.6763258 -0.45273569 -1.0214037 4283980893
5.6753998 -0.4877249 -1.0217699 4283915611
5.6723003 -0.52253938 -1.0217699 4284639332
5.6640954 -0.55685276 -1.0208544 4284573793
5.6615496 -0.59169883 -1.0210375 4284640102
5.6675839 -0.62750876 -1.0228684 4283982436
5.6909671 -0.66547155 -1.027995 4281350213
5.6770191 -0.69917578 -1.0261641 4292137432
4.7308121 -0.612068 -0.84929568 4285817179
4.7123542 -0.63910121 -0.84654927 4286210646
4.6820645 -0.66427296 -0.84160578 4280161037
4.6924872 -0.69515127 -0.84435219 4280097301
4.6823044 -0.72303003 -0.84325361 4280557848
4.6700149 -0.750498 -0.84178889 4280360469
4.6391411 -0.77476394 -0.83684534 4279768853
4.5694013 -0.79196095 -0.82457805 4285952627
4.5392981 -0.81546175 -0.81981766 4288123016
4.5255103 -0.84168047 -0.81816977 4283190073
4.4739227 -0.86051583 -0.80938131 4280623895
4.4820576 -0.89063472 -0.8119446 4282925369
4.464952 -0.91574806 -0.80974752 4284439375
4.4544401 -0.94210976 -0.80883205 4282005799
5.4686632 -1.19181 -1.0032774 4291413936
5.4717989 -1.2277108 -1.0052915 4282464548
5.4181848 -1.2506456 -0.99650282 4291739310
5.4218869 -1.2865921 -0.99869996 4286738019
4.9382472 -1.2038454 -0.9075194 4280748550
4.9164629 -1.2305417 -0.904773 4281211930
5.2544599 -1.349481 -0.97123593 4285490534
5.2403765 -1.3801936 -0.97013742 4284897882
5.2802138 -1.4253924 -0.9794752 4285291347
4.0756068 -1.1269931 -0.74841118 4284108619
4.0525355 -1.1474248 -0.74529856 4281871909
4.0406971 -1.1709007 -0.7443831 4280357899
4.0815058 -1.2099261 -0.75372088 4281611819
3.3904486 1.0755438 -0.66627985 4282926400
3.4175911 1.0611258 -0.67056054 4283256400
4.1260877 1.2260468 -0.8145473 4292733413
4.124114 1.1979678 -0.81260157 4284769370
4.1361046 1.1739805 -0.81357443 4280554770
4.1375594 1.1470059 -0.81240696 4283189060
4.1748157 1.1298045 -0.81863344 4282994509
4.1522717 1.0963961 -0.81260157 4283979612
4.1807671 1.0765293 -0.8170768 4285425768
4.1882453 1.0510952 -0.81727141 4293120194
5.1664395 1.2632201 -1.0157397 4288248414
5.2399316 1.2471812 -1.0291655 4291671449
5.0888629 1.1782422 -0.99686575 4282987567
5.1323586 1.1551881 -1.0042597 4283645752
5.2179232 1.1408725 -1.0202149 4280684042
5.3745027 1.1406339 -1.0505689 4282065695
5.3727541 1.1058537 -1.0488178 4281804059
5.3852096 1.0740186 -1.0499852 4288312936
5.4003654 1.0426306 -1.0517364 4286601304
5.6197467 1.0493071 -1.0947379 4280488733
5.6405587 1.0174199 -1.0976565 4279573287
5.6727862 0.98733747 -1.10291 4280033324
5.6884108 0.95413601 -1.1048559 4291217621
5.7232075 0.9239102 -1.1106931 4279113504
5.7142305 0.88651723 -1.1077745 4279641651
5.7108307 0.85013694 -1.1060233 4279642172
5.7178817 0.81535733 -1.1064124 4279707454
5.7208328 0.77999234 -1.1060233 4279511358
5.7196755 0.74411482 -1.1048559 4279511104
5.7153726 0.70791858 -1.1031046 4279380801
5.7166862 0.67249197 -1.1025209 4280760134
5.7226548 0.63762003 -1.10291 4279970102
5.7206063 0.60187751 -1.1017426 4279577151
5.7300482 0.56734627 -1.10291 4279249734
5.7256083 0.53144979 -1.1013534 4280365125
5.7287612 0.49630815 -1.1013534 4287272347
5.6994343 0.4585453 -1.0949324 4285165419
5.6972494 0.42320126 -1.0939596 4283913032
5.698761 0.38816878 -1.093765 4282662199
5.6980982 0.35301197 -1.0931813 4280228374
1.8101676 0.1001965 -0.32032236 4280616192
1.8136874 0.089234136 -0.3209061 4282786842
1.8200804 0.078360818 -0.32207358 4283051812
1.7911211 0.066087253 -0.31623626 4282330399
1.7679631 0.054356836 -0.31156641 4282725412
1.8025836 0.044375028 -0.3183766 4286605659
1.735153 0.032019243 -0.3049508 4283512618
1.695104 0.02084947 -0.29697317 4282593313
1.6883339 0.010401044 -0.29561114 4281410588
1.6864042 4.0013809e-05 -0.29522198 4280884762
1.6726403 -0.010233194 -0.2924979 4280819742
1.668623 -0.020450806 -0.29171959 4280491808
1.6635623 -0.030602155 -0.29074672 4280163870
1.6692269 -0.040949203 -0.29191417 4280097046
1.6601202 -0.050926168 -0.29016298 4280554526
5.7170243 -0.20762391 -1.0955162 4280362280
5.6989827 -0.24199501 -1.0922084 4278849049
5.6582007 -0.27506179 -1.0844253 4284441703
5.6309414 -0.30838534 -1.0793663 4284638303
5.6916046 -0.34673476 -1.0918192 4284440413
5.5298414 -0.37098286 -1.0601032 4283716692
5.6849647 -0.41641051 -1.0914301 4284769893
5.680347 -0.45113 -1.0910408 4285296751
5.6804042 -0.48622584 -1.0916246 4285165165
5.6773129 -0.52107102 -1.0916246 4285165165
5.6769381 -0.55618286 -1.0922084 4285230960
5.6753693 -0.59120828 -1.0925975 4285099374
5.6765103 -0.62655765 -1.0935704 4284309605
5.691071 -0.66353071 -1.0972674 4281020219
5.6956544 -0.69951236 -1.0990186 4281479740
4.7106266 -0.6081025 -0.90288514 4284503639
4.6951418 -0.63541919 -0.90055025 4280950815
4.7028093 -0.66586334 -0.90288514 4280163618
5.7000613 -0.84251744 -1.1036884 4279442467
5.7006011 -0.87837166 -1.1048559 4280888882
5.6941361 -0.91317815 -1.1046612 4282203194
4.7082739 -0.78494108 -0.90755498 4282663224
4.5081224 -0.78008199 -0.86825049 4287400061
4.4897337 -0.80530769 -0.86552644 4281346329
4.4673481 -0.82962179 -0.86202407 4281872421
4.4824028 -0.86089724 -0.86611015 4280622101
4.4683771 -0.8866685 -0.86435896 4281082654
4.4513206 -0.91171044 -0.86202407 4281741862
4.4206886 -0.93374211 -0.85696507 4283254836
4.4024158 -0.95814085 -0.85443556 4284043580
4.3820953 -0.98192215 -0.8515169 4284568125
4.368341 -1.0070308 -0.84996027 4284568127
4.3095818 -1.0213882 -0.83925855 4285356101
4.2937026 -1.0454938 -0.83731282 4282130193
4.269125 -1.0673045 -0.83361584 4286671197
4.2501435 -1.0903139 -0.83108634 4291408554
4.2092209 -1.1073967 -0.8240816 4291474341
4.1938229 -1.1309069 -0.82233036 4288447592
4.1470919 -1.1456591 -0.81415814 4284566323
4.1163859 -1.1644155 -0.80929375 4280751107
4.0987992 -1.1866535 -0.8071534 4280687892
3.2899783 1.0876667 -0.6913318 4292532441
3.2807643 1.0623368 -0.68782347 4280426011
4.1068153 1.1918421 -0.86241668 4285953376
4.1140509 1.1666207 -0.86241668 4284570710
4.1296191 1.1437052 -0.86427402 4284175701
4.1497831 1.1219187 -0.8671633 4283848791
4.2057881 1.1094081 -0.87789482 4282863952
5.2928324 1.3613675 -1.1131623 4290691001
5.20997 1.3060317 -1.0933503 4288841596
5.2302432 1.2770557 -1.0960331 4290813838
5.2360764 1.244487 -1.0956204 4291604902
5.0805926 1.1746571 -1.0603303 4285683282
5.2509542 1.1801387 -1.0956204 4284826924
5.2475805 1.1456022 -1.0933503 4284628516
5.2659984 1.1158152 -1.0958267 4289759596
5.2813716 1.0852547 -1.0976841 4289762682
5.4059682 1.0763208 -1.1230682 4279438080
5.5075903 1.0614552 -1.1434994 4280297265
5.5524764 1.0348096 -1.1517544 4279905075
5.5789442 1.00436 -1.1560882 4280100656
5.5984988 0.9724527 -1.1589775 4292271070
5.6217313 0.94098908 -1.1626923 4279376672
5.6505842 0.91021013 -1.1676452 4279772469
5.6705675 0.87776589 -1.1707408 4279510586
5.6893964 0.84496695 -1.1736301 4279510590
5.7138486 0.81279624 -1.1777576 4279380032
5.7449059 0.78127974 -1.1833297 4279249467
5.7427998 0.74513406 -1.1818851 4279183680
5.7540612 0.71072209 -1.1833297 4279905595
5.7447085 0.67380756 -1.1804405 4281747530
5.7360921 0.63714254 -1.1777576 4279510838
5.7437859 0.60234255 -1.1785831 4279642693
5.7512689 0.56747204 -1.1794087 4279511615
5.7390532 0.53073162 -1.1761067 4280496193
5.7568245 0.49676836 -1.1792023 4289045425
5.7051449 0.45706365 -1.1676452 4284239952
5.6736879 0.41952586 -1.1604221 4284107849
1.8473507 0.12546641 -0.35101947 4282593834
1.8451558 0.11394859 -0.35040036 4281212181
1.8467972 0.1026789 -0.35060671 4280820511
1.8493472 0.09144146 -0.35101947 4281017120
1.8440081 0.079839632 -0.34978122 4281148183
1.8346852 0.0681623 -0.34771746 4282462751
1.8164866 0.056331299 -0.34379634 4281935896
1.7923437 0.044581495 -0.33863696 4282329625
1.7661693 0.033093877 -0.33306485 4283053095
1.7252464 0.021747449 -0.32439709 4282330149
1.7155627 0.011100022 -0.32233334 4281606686
1.7058139 0.00057225046 -0.32026961 4280884509
1.6960007 -0.0098354677 -0.31820586 4280688156
1.6900381 -0.020170342 -0.31696761 4280360218
1.679121 -0.030342899 -0.31469747 4280295195
1.6808597 -0.040693033 -0.31511024 4280163094
1.6815563 -0.051035736 -0.31531659 4279835157
5.7665176 -0.21137711 -1.1775513 4279835669
5.7269874 -0.24512145 -1.1695026 4278782219
5.6667371 -0.27738267 -1.1571201 4285493103
5.6981463 -0.31398052 -1.1641369 4284900966
5.6560702 -0.3464821 -1.1556755 4284440413
5.6509089 -0.38098297 -1.1550564 4282860870
5.6455374 -0.41543344 -1.1544373 4284900966
5.6936011 -0.45411474 -1.1651688 4285098858
5.6887579 -0.48887381 -1.1647561 4285099885
5.6827278 -0.52350068 -1.1641369 4285034862
5.6803832 -0.55845517 -1.1643432 4285034344
5.6778226 -0.59340066 -1.1645496 4284440154
5.6653218 -0.62725824 -1.1626923 4281808956
5.708015 -0.66746622 -1.1725982 4279772461
5.7174077 -0.7041527 -1.1754875 4279708217
5.7217131 -0.74035138 -1.1773449 4279971388
5.7228799 -0.77623475 -1.1785831 4284509558
5.7364159 -0.81394804 -1.1825043 4283717723
5.7226024 -0.84783947 -1.1806469 4279505688
5.7250285 -0.88413203 -1.1822978 4280624682
5.7194953 -0.91924351 -1.1822978 4280953897
4.8046298 -0.80241549 -0.98789263 4281478952
4.7784061 -0.82820314 -0.98335242 4281675300
4.8040514 -0.86304623 -0.98995638 4280623645
5.6336484 -1.0478745 -1.1690899 4280428849
5.5992479 -1.0770602 -1.163105 4280298036
4.7585607 -0.94560325 -0.98376513 4280953645
4.7795072 -0.98029023 -0.98954368 4281346855
4.7609577 -1.006965 -0.98686075 4281017888
4.9420691 -1.0770088 -1.0273103 4280952610
5.0079265 -1.123598 -1.0429947 4281018666
5.0171456 -1.1580472 -1.0465032 4281017891
5.0242257 -1.1921996 -1.0495988 4281673247
4.3285708 -1.0551695 -0.90018332 4284696377
4.2821488 -1.071728 -0.89151555 4285221692
4.254643 -1.0926265 -0.88697529 4287525726
4.2175808 -1.1107348 -0.88037127 4286670419
4.1908484 -1.131236 -0.87603742 4284170285
4.162138 -1.1509292 -0.8712908 4283909171
4.1521735 -1.1756461 -0.87067169 4282791462
4.133604 -1.1978322 -0.86819518 4280688147
5.0061107 -1.4841083 -1.0617748 4282601034
3.1890068 1.0753368 -0.7119453 4288452748
3.1881323 1.0532974 -0.7102015 4280556057
3.19175 1.0328132 -0.70954758 4286285191
4.1019936 1.1899887 -0.91422415 4284901728
4.1064014 1.1639978 -0.91357023 4284900954
4.1125259 1.1385188 -0.91335225 4281875769
4.1561756 1.1232034 -0.92185318 4282993228
4.1743126 1.1006695 -0.92446887 4284767321
5.0571361 1.300568 -1.1265298 4286998871
5.088686 1.2754507 -1.1319791 4294435523
5.0907283 1.242813 -1.1306713 4292196771
5.0887632 1.2092949 -1.1284915 4288775543
5.0685139 1.1716673 -1.1221703 4293118646
5.1146464 1.1493272 -1.1311072 4291140216
5.1406713 1.1220895 -1.1354667 4289824609
5.1264553 1.086071 -1.1306713 4283116065
5.3672295 1.1027679 -1.1840746 4280887084
5.4169655 1.0783985 -1.1938834 4280100656
5.4436049 1.0490228 -1.1984608 4279575860
5.4691267 1.0191815 -1.2028203 4279970353
5.4973683 0.98958588 -1.2078336 4291482828
5.4860291 0.95282632 -1.2039101 4279047196
5.5841756 0.934632 -1.2248355 4279577149
5.6090755 0.90345848 -1.229195 4279315521
5.6212645 0.87007117 -1.2307208 4279249726
5.6448388 0.83829099 -1.2348623 4279511356
5.663403 0.80556607 -1.237914 4279380029
5.681778 0.77264476 -1.2409655 4279578691
5.7067356 0.74040854 -1.245543 4279247668
5.7256999 0.70717615 -1.2488126 4283521382
5.7444701 0.67373884 -1.2520821 4279903804
5.7446165 0.63804698 -1.2512102 4279707967
5.7503648 0.60299069 -1.2516462 4279445822
5.7578411 0.56807983 -1.2525181 4279642174
5.7466412 0.53138876 -1.2492485 4280561988
5.7507663 0.49620214 -1.2494664 4283323490
5.7215991 0.45832857 -1.2422733 4282992969
1.8301957 0.13451403 -0.37016377 4283979084
5.6998434 0.35112876 -1.2357342 4285625967
5.6999416 0.3160401 -1.2352983 4285428598
1.8602389 0.09090925 -0.37626702 4281542176
1.8597866 0.079451062 -0.37604904 4281081365
1.8475606 0.067566432 -0.37321541 4281804318
1.8479403 0.056228742 -0.37321541 4282988329
1.830689 0.044451304 -0.36929187 4284500533
1.7528645 0.031751487 -0.35185406 4284105003
1.6856908 0.020144166 -0.33681393 4282922536
1.7004217 0.0098958379 -0.34008351 4281541922
1.687763 -0.00054264604 -0.33724988 4281082143
1.6965114 -0.010949193 -0.33921161 4280951328
1.6876292 -0.021254055 -0.33724988 4280294429
1.6923461 -0.031696763 -0.33833972 4280229150
1.7057792 -0.042410456 -0.34139135 4280162328
1.6879277 -0.05234376 -0.33746785 4280292884
1.7119573 -0.063588716 -0.34291717 4280096539
5.7268739 -0.24517076 -1.2405295 4279966232
5.6999173 -0.2790699 -1.2348623 4280558369
5.7039447 -0.31435975 -1.2361702 4285163625
5.6872964 -0.34846029 -1.2329005 4283387727
5.6305203 -0.37968448 -1.2206941 4283848276
5.6387916 -0.41501138 -1.2230917 4282467134
5.6886744 -0.45378241 -1.2348623 4284967270
5.6984239 -0.48976278 -1.2376959 4284835686
5.6962838 -0.52480781 -1.237914 4284835432
5.6968417 -0.56013083 -1.2387857 4284770659
5.7000918 -0.59578419 -1.2403116 4284901479
5.6992393 -0.63106978 -1.2409655 4278586643
5.7291875 -0.66998845 -1.2485946 4279444526
5.7220631 -0.70477217 -1.2479407 4279838516
5.7215023 -0.74036902 -1.2488126 4282862674
5.7400627 -0.77860522 -1.2540439 4284965983
4.7321553 -0.67169029 -1.027788 4280427042
5.7184906 -0.84727192 -1.2514282 4279576623
5.6823182 -0.87758338 -1.2444531 4280299057
5.6729727 -0.91181427 -1.2435812 4281282860
4.7941456 -0.80094999 -1.0458798 4280820509
4.7727933 -0.82752079 -1.0421742 4281543203
4.77531 -0.85816962 -1.043918 4280557597
5.5798006 -1.037925 -1.2278872 4280890693
5.5445743 -1.0666175 -1.2213479 4280301903
5.5226088 -1.0975775 -1.2178605 4280697172
5.4956923 -1.1273288 -1.2132829 4279970353
5.3931847 -1.1408507 -1.1914856 4280889135
4.8129621 -1.0491343 -1.0604839 4279309588
4.752152 -1.0664779 -1.0480595 4280623912
4.7550287 -1.0978096 -1.0502392 4278453513
5.2591038 -1.2480959 -1.1675087 4291677386
5.2390194 -1.2773391 -1.164675 4282794553
5.0029058 -1.2523955 -1.1121435 4285487954
4.9242277 -1.2648749 -1.0957956 4284762430
4.8172727 -1.2689848 -1.0729084 4280225287
4.7688785 -1.2875898 -1.0635356 4279964949
4.8295588 -1.335803 -1.0794476 4279636238
4.8494439 -1.3733832 -1.0859869 4283054900
4.9149833 -1.4245595 -1.1032066 4283382062
4.9220576 -1.4594033 -1.1069121 4284499258
4.9316907 -1.495236 -1.1112716 4285883482
5.0408239 -1.5621312 -1.1389542 4282269497
3.105443 1.0691298 -0.73466039 4285950294
3.1119449 1.050055 -0.73466039 4279372549
4.0852933 1.2128247 -0.96511871 4285494641
4.0870495 1.1861079 -0.96374148 4287466883
4.0380659 1.145081 -0.94996905 4279769104
4.0956688 1.1343058 -0.96236426 4282862664
4.1833568 1.1309923 -0.9821046 4284835425
4.1704535 1.100091 -0.97728425 4283779906
4.9708242 1.278568 -1.170557 4286803044
4.9681907 1.245441 -1.1680322 4280159488
4.9710112 1.2137793 -1.1668844 4280156672
4.9764714 1.1828049 -1.1664253 4279763712
4.9864798 1.1529052 -1.1671139 4280290566
5.0010571 1.1239939 -1.1689503 4281672479
5.0820312 1.1094736 -1.1868544 4279899419
5.2782259 1.1184055 -1.2325329 4280098857
5.3078704 1.0906979 -1.2380419 4280101688
5.3345089 1.0620985 -1.2428622 4279708217
5.3629074 1.0335814 -1.2481416 4278587418
5.3873281 1.0040427 -1.2525029 4286877076
5.3838081 0.96924394 -1.2502075 4279575860
5.4932208 0.95417345 -1.2749978 4280037961
5.5258512 0.9249469 -1.281425 4279710279
5.5448751 0.89318961 -1.2846385 4279644486
5.5637174 0.86123365 -1.287852 4279513157
5.5823755 0.82907999 -1.2910657 4279578180
5.6066294 0.79755169 -1.2956564 4279512645
5.6364932 0.76654345 -1.3016245 4279446074
5.6632905 0.73482317 -1.306904 4286416523
5.6850801 0.70220643 -1.3110356 4280363318
5.7037821 0.66900998 -1.3144788 4279510588
5.7387342 0.63743597 -1.3218241 4279313979
5.7444739 0.60241461 -1.3222831 4279642424
5.780026 0.57030755 -1.3298579 4279444793
5.7727556 0.53384608 -1.327333 4279509289
5.7768922 0.49849868 -1.3275626 4282662975
5.7769318 0.46280995 -1.3268739 4281478439
5.7359834 0.42412788 -1.3165447 4285033061
1.8541741 0.12592839 -0.39838403 4282596406
1.8519976 0.11436966 -0.39769539 4283716943
1.859467 0.10338066 -0.39930218 4285692790
1.8600664 0.091969237 -0.39930218 4285692022
1.8547614 0.080302969 -0.39792493 4286677375
1.8347938 0.068166316 -0.39310461 4284832342
1.8293405 0.056727175 -0.39172736 4282922029
1.8384112 0.045717414 -0.39379323 4283710767
1.7831885 0.033409055 -0.38070944 4284894267
1.7356719 0.021876534 -0.36946195 4283185450
1.695869 0.010977033 -0.36005083 4281213208
1.6959045 0.00057116948 -0.36005083 4280819229
1.6949028 -0.0098288497 -0.35982129 4280622879
1.6909176 -0.020181041 -0.35890311 4280163611
1.7014664 -0.030751837 -0.36142805 4280229402
1.6924887 -0.040977243 -0.35936219 4280163094
1.6931782 -0.051391136 -0.35959172 4280096788
1.7025574 -0.062136501 -0.36188713 4279966230
5.7687464 -0.2469116 -1.3218241 4279506201
5.8001757 -0.28392348 -1.3296283 4280361247
5.7370992 -0.31612957 -1.3151673 4285098596
5.7224221 -0.35055131 -1.3121834 4284835424
5.7036552 -0.38454267 -1.3082812 4284506459
5.6866279 -0.41846001 -1.3048381 4282862145
5.7217922 -0.45636511 -1.3137901 4284375386
5.7450662 -0.49371663 -1.3199877 4284243545
5.7409596 -0.52886897 -1.3197582 4284506719
5.7560105 -0.56589556 -1.3241194 4285821809
5.7563019 -0.60160798 -1.3250376 4284900966
5.7612085 -0.63788128 -1.3271035 4281019955
5.7600861 -0.67355871 -1.327792 4279837487
5.7529469 -0.70853215 -1.3271035 4279706928
5.7446303 -0.74331844 -1.3261852 4280430140
5.7216363 -0.77606601 -1.3218241 4281613125
4.720365 -0.6697101 -1.0844795 4280692532
5.6722078 -0.84036988 -1.3124129 4279645246
5.6544404 -0.87322605 -1.3094288 4279444775
5.6355228 -0.90574151 -1.3062153 4286086002
4.8138671 -0.80395907 -1.1111062 4280950804
4.8098025 -0.83364755 -1.1113358 4281806113
4.8045969 -0.86314422 -1.1113358 4280952608
5.5168667 -1.0261446 -1.2834908 4280958537
5.4731913 -1.0528033 -1.2745388 4281026648
5.4609008 -1.0852276 -1.2731615 4278522394
5.3778644 -1.1030642 -1.2547983 4294639359
5.3509984 -1.1318104 -1.2499779 4278455821
5.3411002 -1.1640003 -1.2492893 4289843662
5.3186622 -1.1933404 -1.2456167 4289581771
5.2770996 -1.2180697 -1.2373532 4289777348
5.258163 -1.2477291 -1.2345988 4292735210
4.85326 -1.1831205 -1.1381919 4278652169
4.7656565 -1.1927842 -1.118681 4281807658
4.7676744 -1.224425 -1.1209763 4280949010
4.821249 -1.2697731 -1.1358964 4281803295
4.816186 -1.3000931 -1.1365851 4279567105
4.8062415 -1.3291012 -1.136126 4280355077
4.8120432 -1.3625453 -1.1395692 4280095757
4.8250928 -1.3982784 -1.1448486 4281148196
4.8369513 -1.4339458 -1.1498984 4280951581
4.816885 -1.4602087 -1.147144 4281477915
4.8189907 -1.4931947 -1.1498984 4284371273
4.6733389 -1.4795409 -1.116156 4287002995
4.5780482 -1.4803318 -1.0948088 4285292366
4.558713 -1.5050372 -1.0922838 4287001169
4.5586152 -1.5360892 -1.0945792 4294502078
4.572114 -1.5719445 -1.1003177 4293778098
4.5807514 -1.6064122 -1.1049086 4293050514
4.5588951 -1.6302277 -1.1019245 4289766767
4.5378332 -1.6541687 -1.0991701 4294963382
4.4965777 -1.6704549 -1.0913657 4291142238
4.4917049 -1.7000813 -1.0927429 4285616404
4.4948111 -1.7328627 -1.096186 4285026857
4.4505734 -1.747247 -1.0876931 4283782978
3.0593021 1.0735428 -0.76407409 4282071338
3.0832677 1.0607567 -0.76864809 4281348393
3.1485729 1.0616869 -0.78405523 4285298032
4.1126742 1.2756236 -1.0279211 4282403906
4.0767751 1.2371062 -1.0166065 4283321926
3.9856663 1.1827712 -0.99108839 4291609021
4.0375886 1.1712856 -1.0026437 4279567621
4.0839162 1.1576174 -1.0127547 4284439127
4.8261166 1.3362808 -1.2019734 4290095264
4.7489657 1.2835772 -1.1800663 4293712588
4.8346434 1.2749745 -1.2000475 4283446049
4.175952 1.0737393 -1.0293655 4291073136
4.8725195 1.2212183 -1.2058252 4291465323
4.8469214 1.1832342 -1.1973994 4290939228
4.8720307 1.1577394 -1.2019734 4291270253
4.8620219 1.1238847 -1.1976402 4286865733
5.0193877 1.1278991 -1.2359172 4280558640
5.1324148 1.1202853 -1.2628797 4279839545
5.1980586 1.1012573 -1.2778053 4279575858
5.2389436 1.0763816 -1.2864718 4280298051
5.2787647 1.0508553 -1.2948976 4281811793
5.3070326 1.0226744 -1.3004346 4283654498
3.2694676 0.60879308 -0.7847774 4285627007
5.3784051 0.96814555 -1.3153602 4280367178
5.4100628 0.93961591 -1.3218601 4279907915
5.4339142 0.90945065 -1.326434 4279907916
5.4595141 0.87933689 -1.3314896 4279776330
5.4954996 0.85057855 -1.3391931 4279710026
5.5294161 0.82112598 -1.3464152 4279644231
5.55549 0.79019392 -1.3517114 4279906112
5.5823531 0.75910378 -1.3572483 4283323741
5.5984559 0.72633773 -1.3601371 4279310879
5.621109 0.69423676 -1.3647112 4280299334
5.6512895 0.66279101 -1.3712111 4279971141
5.6658611 0.62928367 -1.373859 4280036930
5.6879559 0.59643364 -1.3784331 4280364347
5.7030993 0.56266773 -1.3813219 4280231730
5.7277064 0.52963394 -1.3866181 4285624438
5.7482538 0.49598485 -1.3909514 4280556836
5.7647333 0.46179268 -1.3943217 4280426793
1.8240948 0.13406171 -0.41356206 4282596152
1.8268198 0.12299841 -0.41404352 4282793785
5.7935696 0.35692179 -1.3996179 4280163880
5.8567028 0.32476413 -1.4147843 4280097313
5.8013906 0.28599086 -1.4005808 4279505688
5.800127 0.25026271 -1.3998586 4278978058
1.8219737 0.066614509 -0.41211763 4289569689
1.8194377 0.055343442 -0.41139543 4285026884
1.8313866 0.04446869 -0.41428426 4285092153
1.7724293 0.032118935 -0.39959934 4285157944
1.7114507 0.020469859 -0.38443297 4283053864
1.702809 0.0099113714 -0.38226634 4281476383
1.6853671 -0.00054353464 -0.37793308 4280425751
1.6940672 -0.010935102 -0.38009971 4280492059
1.6939683 -0.021329498 -0.38009971 4280426266
1.7054507 -0.031933155 -0.38298854 4280359958
1.703282 -0.042350084 -0.38250709 4280163094
1.70202 -0.052771017 -0.38226634 4279835156
1.7278526 -0.064168274 -0.38876623 4279835414
1.7157899 -0.074273176 -0.38587737 4279835414
5.7879152 -0.28336024 -1.3972105 4278650372
5.7889748 -0.31902856 -1.3979328 4279703057
5.7859397 -0.35448384 -1.397692 4278848262
5.7797823 -0.38971865 -1.396729 4278520326
5.6911311 -0.41885263 -1.3753035 4278913803
5.7494087 -0.45861462 -1.3904699 4283847249
5.8228831 -0.50043404 -1.4094881 4282860356
5.7955394 -0.53393197 -1.4034697 4280492324
5.7709036 -0.56739759 -1.3981735 4279178266
5.7653828 -0.60259509 -1.397692 4279441952
5.7384238 -0.63540047 -1.3919144 4279640105
5.7228479 -0.6692484 -1.3890254 4279706417
5.7118902 -0.70352137 -1.3873403 4279378741
5.6939902 -0.73681456 -1.38397 4279839290
5.6807055 -0.77056593 -1.3818034 4278192924
4.7081523 -0.66828924 -1.139382 4278194720
5.6132135 -0.83169538 -1.3673592 4280301375
5.6003304 -0.8649382 -1.3654333 4280825157
5.5834184 -0.89743888 -1.3625445 4286348134
4.8157473 -0.80455357 -1.1709185 4281213976
4.7982874 -0.83193481 -1.1677889 4281413151
4.78545 -0.85998929 -1.1658629 4280492825
5.4222994 -1.0086609 -1.3278785 4282536019
5.3959918 -1.0380663 -1.322823 4278193941
5.3695283 -1.067187 -1.3177675 4292995825
5.3438625 -1.0962169 -1.3129529 4278259985
5.3294387 -1.1273803 -1.3110269 4291223773
5.3015566 -1.1555171 -1.3057307 4289515716
5.27069 -1.1827174 -1.2997123 4290237381
5.2226658 -1.2056565 -1.2893606 4290696392
5.1868372 -1.2309622 -1.2821386 4289907388
5.1367507 -1.2524282 -1.2713054 4290237383
4.9990296 -1.2514262 -1.2380838 4290761935
4.9470711 -1.2707369 -1.2267692 4279837213
4.8838015 -1.2864934 -1.2125658 4287401351
4.7155724 -1.2732109 -1.1713998 4279371776
4.7029939 -1.3008285 -1.1701962 4292985784
4.7033286 -1.3320394 -1.1723628 4290879633
4.6270103 -1.3411646 -1.1547891 4288773487
4.6456819 -1.3775253 -1.1617705 4281075456
4.7030945 -1.4259844 -1.1788627 4282063895
4.6979642 -1.4559636 -1.1798257 4282852893
4.6861663 -1.483884 -1.1791035 4284759845
4.5753808 -1.4797798 -1.1526225 4284958761
4.5422506 -1.4999191 -1.1463633 4294964930
4.4676533 -1.5057683 -1.129271 4293252753
4.4528227 -1.5312606 -1.1278266 4290683227
4.4396796 -1.5572697 -1.1268637 4290484310
4.4355245 -1.5864415 -1.1283081 4289301578
4.4539776 -1.6239271 -1.1357709 4287721784
4.4757757 -1.6630499 -1.1441966 4284627979
4.4682107 -1.6915116 -1.1449189 4284567327
4.4631815 -1.7209902 -1.1463633 4284368667
4.4859681 -1.7614607 -1.1552706 4283713317
4.4660621 -1.7853522 -1.1528631 4282666815
4.032187 1.4989204 -1.0810322 4290294965
4.0531263 1.4784609 -1.0843112 4283711805
2.9277766 1.0477722 -0.77027464 4282264357
4.0663986 1.4270099 -1.08305 4289240724
3.1289146 1.0765997 -0.8222357 4279834895
3.0767756 1.0375975 -0.80609244 4284047965
4.0716534 1.3175528 -1.0752306 4287269252
4.0685911 1.2890385 -1.0722038 4291811793
3.9821477 1.2348255 -1.0464755 4282402113
3.9155681 1.1879013 -1.0262964 4285690734
3.9404099 1.1690813 -1.0310889 4283386439
4.1017885 1.1896105 -1.0729605 4278780160
4.7160411 1.3363819 -1.2374198 4289436546
4.7101626 1.3035493 -1.2336363 4288710505
4.6947174 1.2683161 -1.2273303 4291208596
4.6153889 1.2165556 -1.2038722 4283575832
4.6827488 1.2036256 -1.2200154 4291795576
4.7116361 1.1802766 -1.2258168 4292256121
4.7357106 1.1554717 -1.2303572 4292979078
4.7436533 1.1266155 -1.2306094 4283641374
4.984303 1.1514885 -1.2931645 4280030746
4.9997721 1.1227913 -1.2954346 4279903277
5.0037313 1.0914737 -1.294678 4280890693
5.0586157 1.0709687 -1.3075421 4278720031
5.1627259 1.0599471 -1.3335226 4290955731
5.193809 1.0331559 -1.3400809 4279574315
3.2473397 0.62542289 -0.82173121 4282667351
5.2926674 0.98545456 -1.3630345 4280039244
5.3205194 0.95689887 -1.3688359 4279972418
5.3367782 0.92605376 -1.3716106 4280235328
5.3748107 0.89871413 -1.3801867 4280104776
5.3993316 0.86879116 -1.3852315 4280301648
5.4342065 0.84022677 -1.3930508 4280236108
5.4660611 0.81084108 -1.4001135 4289838788
5.5035076 0.78191239 -1.4086896 4285225552
5.5321727 0.75138289 -1.4149956 4285749067
5.551074 0.71928823 -1.4187791 4294765286
5.5784326 0.68805522 -1.4248328 4294962411
5.5940828 0.65516359 -1.4278597 4290487704
5.6258888 0.62391794 -1.4351746 4284764993
5.633461 0.58978915 -1.4361836 4286406738
5.6581602 0.55729705 -1.4417328 4289498241
5.674963 0.52381295 -1.4452641 4283643939
5.7041011 0.49122208 -1.4520745 4284762160
5.6693883 0.45320848 -1.4422373 4284302637
5.7261052 0.42239609 -1.4563626 4283974189
1.8116934 0.12273726 -0.43303207 4279704597
5.7646623 0.3541708 -1.465191 4282395155
5.7106876 0.31569865 -1.4505612 4281078272
5.7115512 0.2806052 -1.4503089 4281735695
5.7334676 0.2464257 -1.4556059 4282657574
1.8223418 0.067390591 -0.43504995 4289043858
1.8111144 0.055852205 -0.43202311 4285751880
1.828836 0.045164682 -0.4365634 4285158710
1.7855409 0.033143636 -0.42521268 4285093180
1.742169 0.021655625 -0.41386196 4281080845
1.7209809 0.010836237 -0.40831271 4281082905
1.7074677 0.00027717935 -0.40478137 4280492055
1.7074372 -0.010199651 -0.40478137 4280361241
1.701537 -0.020604469 -0.40326795 4280492059
1.7013785 -0.031044517 -0.40326795 4280426266
1.7263076 -0.042102478 -0.40982613 4280294167
1.7347217 -0.052961826 -0.41209629 4280097046
1.7527373 -0.064282805 -0.4168888 4280032282
1.7668114 -0.075660385 -0.42067239 4280032797
5.5994391 -0.27506077 -1.4210492 4284237117
5.3879828 -0.29780927 -1.3663136 4284039738
5.3416257 -0.32813126 -1.3547106 4282988329
5.3704062 -0.36299112 -1.3627822 4283450160
5.3864136 -0.39729023 -1.3675748 4284830273
5.4851561 -0.43843591 -1.3940598 4284698169
5.5353875 -0.47665367 -1.4079329 4284501562
5.6614761 -0.52253526 -1.4417328 4282660904
5.6639414 -0.55783302 -1.4432462 4281477408
5.6854343 -0.59519702 -1.4498044 4279768081
5.6730189 -0.62911052 -1.4475343 4280098336
5.6690521 -0.66390771 -1.4475343 4280034343
5.6648722 -0.69867986 -1.4475343 4279838506
5.6441646 -0.73131078 -1.4432462 4280102456
5.623271 -0.76371402 -1.4389582 4278456612
5.5916538 -0.7943905 -1.4318955 4281023306
5.5771022 -0.82726485 -1.4293731 4279972156
5.5365386 -0.85599667 -1.4200404 4280367427
5.5235391 -0.88872188 -1.4180224 4286678391
4.8250837 -0.80669612 -1.2348975 4282858283
4.8286238 -0.83777654 -1.2371676 4281870881
4.8214869 -0.86704594 -1.2366631 4281214238
4.973042 -0.9258489 -1.2782824 4278256900
5.3739533 -1.034677 -1.3862404 4294310907
5.2479219 -1.0438371 -1.3544583 4279244056
5.3125091 -1.0906178 -1.3733763 4293588724
5.2564907 -1.1127695 -1.3602599 4284577642
5.0472436 -1.1008576 -1.3062809 4291747788
5.2197804 -1.1721011 -1.3542062 4291220930
5.1804342 -1.1966994 -1.34563 4293127132
5.1080327 -1.2130316 -1.3282256 4283981655
4.960422 -1.2101674 -1.2906421 4284114281
4.7539096 -1.190722 -1.2371676 4283128156
4.9161448 -1.2634792 -1.2828227 4279377953
4.9354353 -1.3007743 -1.2901376 4283590757
4.8890605 -1.3206837 -1.2797959 4289442475
4.6421204 -1.2845713 -1.2152228 4282591001
4.62391 -1.310128 -1.2124482 4284164633
4.6092782 -1.3365881 -1.2106826 4287321152
4.5963521 -1.3634685 -1.2094214 4290809198
4.5925298 -1.3930504 -1.2106826 4287586881
4.5986834 -1.4257896 -1.2147183 4289494104
4.5953832 -1.4557335 -1.2162318 4288044104
4.5789986 -1.4815192 -1.214214 4288637012
4.5569592 -1.5053371 -1.2106826 4283638541
4.4623628 -1.5045114 -1.1872244 4288050504
4.4356618 -1.5258813 -1.1824319 4287785780
4.4298682 -1.5543512 -1.1834408 4286603560
4.4193368 -1.581177 -1.1831887 4286208292
4.4186416 -1.6115803 -1.185711 4285486119
4.4467645 -1.6528251 -1.196305 4283580191
4.485405 -1.6985884 -1.2099259 4282264857
4.4965653 -1.7344379 -1.2159796 4282263569
4.5245667 -1.7772112 -1.2268258 4283315489
4.5207644 -1.807815 -1.2288437 4283187503
4.0248241 1.5254995 -1.1337932 4293782759
4.0106015 1.4920228 -1.12695 4283384370
2.8308058 1.033018 -0.78163218 4282067237
4.0095372 1.4358584 -1.1214228 4288645992
4.0009794 1.4051507 -1.1164221 4284698937
3.1886404 1.0976707 -0.87954241 4281213976
4.0718479 1.3741621 -1.1319507 4286671710
4.0911937 1.3527893 -1.1351092 4288448374
4.0746388 1.3196285 -1.1280028 4280093188
4.0955324 1.2986879 -1.1316876 4286280048
3.7533267 1.1647735 -1.0316718 4281018666
3.7733257 1.1456493 -1.0353565 4283256654
4.2112184 1.250571 -1.1580075 4282662716
4.1030097 1.1910573 -1.1251076 4279175168
