# .PCD v0.7 - Point Cloud Data file format
VERSION 0.7
FIELDS x y z rgb
SIZE 4 4 4 4
TYPE F F F U
COUNT 1 1 1 1
WIDTH 1109
HEIGHT 1
VIEWPOINT 0 0 0 1 0 0 0
POINTS 1109
DATA ascii
1.779115 0.044255301 -0.29232529 4289702297
1.7302066 0.032427888 -0.28317061 4286149993
1.6998996 0.021433616 -0.2774947 4281019428
1.6882021 0.010929152 -0.27529758 4281018150
1.6882373 0.00057033316 -0.27529758 4281478190
1.6882092 -0.0097885076 -0.27529758 4281937969
1.6881171 -0.020146979 -0.27529758 4282266934
1.6938595 -0.030612623 -0.27639613 4282332981
1.6946225 -0.04102939 -0.27657923 4282135348
5.6846356 -0.20837016 -1.020305 4281678924
5.6911073 -0.24358334 -1.0217699 4283390057
5.6413913 -0.2761403 -1.0127983 4287468181
5.6759109 -0.31275377 -1.0195727 4287269766
5.6660342 -0.34709322 -1.018108 4282993480
5.6451621 -0.38059506 -1.0146292 4286876037
5.6731133 -0.41746458 -1.020305 4287007623
5.6694655 -0.4521881 -1.0201221 4286942341
5.672461 -0.48747218 -1.0212206 4286482560
5.6732793 -0.52262962 -1.021953 4287468684
5.6660523 -0.55704528 -1.0212206 4287468172
5.6664386 -0.59221005 -1.021953 4287730578
5.6607442 -0.62675101 -1.0215868 4278653727
5.682179 -0.66444337 -1.0263472 4280959061
5.6799464 -0.69953644 -1.0267134 4286417289
4.7132626 -0.60979605 -0.84600002 4283123775
4.7006645 -0.63751483 -0.84435219 4282200357
4.6840115 -0.66454929 -0.84197193 4281082139
4.7002673 -0.69630444 -0.84581691 4281345572
4.676475 -0.7221294 -0.84215504 4282004015
4.6573968 -0.74846911 -0.83940864 4282992193
4.6333232 -0.77379185 -0.83574677 4285756526
4.5083766 -0.7813791 -0.81304318 4288914590
4.5093031 -0.81007063 -0.81414175 4287201662
4.4897499 -0.83502638 -0.81139535 4288252032
4.4855075 -0.86274499 -0.81157845 4285817692
4.4888072 -0.89197654 -0.81322628 4287527548
4.4745822 -0.91772407 -0.81157845 4293714397
4.4477072 -0.94068527 -0.80755037 4294701551
5.442729 -1.1861562 -0.99833375 4294833904
5.4545326 -1.2238356 -1.0019957 4294638071
5.4287214 -1.2530786 -0.99851686 4293780200
5.066062 -1.2021303 -0.9305892 4282331441
4.9812269 -1.2143265 -0.91575861 4279830277
5.0261335 -1.2580001 -0.92582875 4282001962
5.2230382 -1.3414086 -0.96519393 4283382840
5.1966462 -1.3686727 -0.96171516 4283580730
5.283061 -1.4261612 -0.9800244 4285688154
4.0566568 -1.1217511 -0.74474931 4285030743
4.0733447 -1.1533189 -0.74932665 4283977795
4.0576935 -1.1758275 -0.74767882 4281279518
4.1361723 -1.2261369 -0.76434028 4293719538
3.3996468 1.1014717 -0.66958761 4293915636
3.4138203 1.0829664 -0.67114425 4294506742
4.091301 1.2156998 -0.80734795 4286679948
4.0949159 1.1894777 -0.8065697 4289901486
4.1087422 1.1662059 -0.80793172 4282400832
4.1460662 1.1493666 -0.81415814 4290492858
4.1293712 1.1174929 -0.80929375 4287531659
4.1693416 1.1009083 -0.81610394 4288056720
4.1807671 1.0765293 -0.8170768 4294309103
5.2775059 1.3247745 -1.0400618 4286279511
5.1540532 1.2601887 -1.0132102 4283975214
5.2790527 1.2565017 -1.0371431 4281738264
5.0429959 1.1676116 -0.98752606 4290950048
5.212738 1.1732987 -1.0206041 4290094214
5.2754149 1.1534561 -1.0318896 4294961610
5.3639483 1.1383917 -1.0484285 4294101421
5.3669901 1.1046659 -1.0476502 4294368202
5.3996382 1.0768994 -1.0529039 4294368729
5.5246005 1.0666437 -1.0768368 4292660439
5.6197467 1.0493071 -1.0947379 4280299334
5.6347671 1.0163741 -1.0964891 4280235087
5.6592574 0.98498005 -1.100186 4280693322
5.7009859 0.95624799 -1.1073853 4284709506
5.7115879 0.92203194 -1.1083583 4281161057
5.7219844 0.88772184 -1.1093311 4280507511
5.7137408 0.85057086 -1.1066071 4280703602
5.710113 0.81424797 -1.1048559 4280899952
5.713058 0.77893066 -1.1044667 4280637557
5.7187028 0.7439881 -1.1046612 4280966011
5.7212133 0.7086432 -1.1042721 4280571762
5.7215567 0.67306596 -1.1034938 4282214521
5.7216797 0.63751119 -1.1027155 4281292138
5.7167044 0.60146618 -1.1009643 4280572534
5.7261438 0.5669589 -1.1021317 4280375666
5.719748 0.53090471 -1.100186 4279778386
5.7141032 0.49503526 -1.0984348 4288127652
5.7023673 0.4587819 -1.0955162 4289373336
5.7021403 0.42356557 -1.0949324 4280426003
5.7007184 0.38830251 -1.0941541 4285027922
5.6716652 0.35136893 -1.0879277 4283056444
1.8630526 0.10315815 -0.33082953 4283841068
1.8607117 0.091578223 -0.33024579 4283841581
1.8318398 0.0788747 -0.3244085 4283908655
1.8166063 0.067044303 -0.32129526 4283909934
1.7846299 0.054880343 -0.31487423 4285620041
1.801603 0.044350252 -0.31818202 4285554248
1.7331916 0.031981722 -0.30456167 4284239425
1.7088352 0.021027874 -0.29969725 4281346856
1.6922573 0.010427943 -0.29638943 4280952105
1.6873851 4.0719984e-05 -0.29541656 4281478192
1.6863725 -0.010307568 -0.29522198 4282003762
1.6833352 -0.020620769 -0.29463825 4282267188
1.6802348 -0.030897086 -0.29405451 4281938992
1.67413 -0.041066032 -0.29288706 4281676848
5.7160439 -0.20758852 -1.0953215 4282993498
5.7087827 -0.24240912 -1.0941541 4284114550
5.6523223 -0.27477723 -1.0832578 4286941840
5.6387768 -0.30881283 -1.0809228 4287137667
5.6700649 -0.34542701 -1.0875385 4284637533
5.5846486 -0.37464806 -1.0709995 4287599506
5.6781163 -0.41591033 -1.090068 4287139468
5.675458 -0.45074275 -1.090068 4287336847
5.67454 -0.48572513 -1.0904572 4287600019
5.6802435 -0.52133936 -1.0922084 4287665812
5.6808434 -0.55656463 -1.0929867 4287533967
5.6782966 -0.59151256 -1.0931813 4287401611
5.6804104 -0.62698734 -1.0943487 4279245088
5.6939936 -0.66387087 -1.097851 4280300104
5.7190208 -0.7023772 -1.1036884 4279441186
4.726192 -0.61010796 -0.90599841 4284110941
4.6873651 -0.63436872 -0.89899361 4281808703
5.7080374 -0.80793846 -1.1042721 4281615962
5.7000613 -0.84251744 -1.1036884 4282208351
5.6986623 -0.87807328 -1.1044667 4284311660
4.7546487 -0.76270717 -0.91592181 4282269498
4.7198844 -0.78687388 -0.90988994 4286610804
4.5071559 -0.77991503 -0.86805594 4284243287
4.4607677 -0.80011994 -0.85968912 4284964439
4.5088191 -0.83731222 -0.87039083 4285027924
4.499743 -0.86422294 -0.86961251 4282330413
4.4799232 -0.88895655 -0.86669391 4285686622
4.4599695 -0.91347957 -0.86377525 4284175685
4.4283667 -0.9353618 -0.85852164 4284373066
4.4024158 -0.95814085 -0.85443556 4284504652
4.3773093 -0.98085105 -0.85054404 4284439376
4.3635616 -1.0059304 -0.8489874 4284700238
4.3086271 -1.0211622 -0.839064 4282790960
4.2803593 -1.0422486 -0.83458871 4281211928
4.2519951 -1.0630268 -0.83011347 4286016098
4.2377911 -1.0871487 -0.82855684 4294634472
4.2073236 -1.1068981 -0.82369244 4294767085
4.1777215 -1.1265697 -0.8190226 4282728493
4.1499286 -1.1464419 -0.81474191 4282859566
4.1428161 -1.1718839 -0.81474191 4282594862
4.128952 -1.1953741 -0.81337988 4285493614
3.3132045 1.0953425 -0.69649118 4294704382
3.3422053 1.0822242 -0.70144421 4290888642
3.9999933 1.1875097 -0.84054095 4286022270
4.1077552 1.1921147 -0.86262304 4284638307
4.1055784 1.164219 -0.86055928 4285296751
4.1465931 1.1484046 -0.86798882 4287468174
4.1658411 1.1262585 -0.87067169 4291217343
4.2512021 1.1213832 -0.88780081 4288321676
5.2596645 1.3528389 -1.1059391 4284568392
5.1359386 1.2874792 -1.077253 4286209878
5.2197871 1.2745035 -1.093763 4285878344
5.1941895 1.2345347 -1.0865399 4282392085
5.0882192 1.1764199 -1.0619813 4290946962
5.1860361 1.1655535 -1.081587 4293380252
5.232285 1.1422642 -1.0900483 4294298523
5.2592974 1.1143959 -1.0943822 4294302155
5.266036 1.0821046 -1.0943822 4294767606
5.4884982 1.0927464 -1.1408166 4286145132
5.5104728 1.0620105 -1.1441185 4281876563
5.5495906 1.034272 -1.1511352 4281489006
5.5760555 1.0038401 -1.1554692 4279052606
5.596571 0.97211796 -1.1585648 4282932592
3.3519144 0.56121564 -0.67729831 4283459185
5.6650743 0.9125433 -1.1707408 4280239719
5.687006 0.88030934 -1.1742493 4280241261
5.7058501 0.84740943 -1.1771386 4280439151
5.7196612 0.81362265 -1.1789958 4280505973
5.7352104 0.77996182 -1.181266 4280440695
5.7340665 0.74400151 -1.1800277 4280111211
5.741437 0.70916367 -1.1806469 4282082934
5.7408214 0.67335188 -1.179615 4280766562
5.7409549 0.63768232 -1.1787895 4280834675
5.7428126 0.60224056 -1.1783768 4280244339
5.7425051 0.56660789 -1.1775513 4280440694
5.7507448 0.53181207 -1.1785831 4279512906
5.7090569 0.49264956 -1.1690899 4280688674
5.7012434 0.45675138 -1.1668198 4283645499
1.8670381 0.138313 -0.35535336 4286082132
1.8619943 0.12645788 -0.3541151 4282398755
1.865665 0.11521084 -0.35473421 4282791728
1.8594979 0.10338238 -0.3532896 4282989620
1.8542337 0.091682047 -0.35205135 4283251756
1.8498735 0.080092356 -0.35101947 4284171825
1.8317517 0.068053938 -0.34709835 4284302382
1.8184426 0.056391541 -0.3442091 4284499501
1.8089727 0.04499153 -0.34214535 4285026610
1.7612777 0.033003293 -0.33203298 4285356871
1.7399224 0.02192916 -0.32749271 4281017120
1.7331749 0.011210011 -0.32604811 4280821287
1.7155986 0.00057331781 -0.32233334 4281478188
1.711656 -0.00992982 -0.32150784 4281938739
1.7125412 -0.020444058 -0.32171422 4281807153
1.7133619 -0.030969532 -0.3219206 4281609774
1.7121614 -0.041458033 -0.32171422 4281610803
1.7128528 -0.051992785 -0.3219206 4281742389
5.7342501 -0.21019214 -1.1707408 4281808182
5.7191668 -0.24478619 -1.1678517 4286348671
5.6755328 -0.27781382 -1.1589775 4287401613
5.6981463 -0.31398052 -1.1641369 4287467406
5.6091914 -0.34360719 -1.1457695 4287993750
5.6489563 -0.38085118 -1.1546437 4286613124
5.6562715 -0.41622406 -1.1567074 4287402640
5.6887245 -0.45372543 -1.1641369 4287336847
5.6907077 -0.48904151 -1.1651688 4287336847
5.6837025 -0.52359051 -1.1643432 4287402640
5.6862259 -0.55903 -1.1655815 4287927442
5.67101 -0.5926882 -1.163105 4286414714
5.6818547 -0.62908989 -1.1662006 4278917153
5.714818 -0.66826218 -1.1740429 4281091168
5.7183785 -0.70427239 -1.1756939 4279712342
5.7178316 -0.73984891 -1.1765194 4280765034
5.7228799 -0.77623475 -1.1785831 4286811285
4.7153425 -0.66899711 -0.96498501 4285363322
5.7264738 -0.84841335 -1.1814724 4280761675
5.7027874 -0.88069576 -1.1775513 4281088319
5.7117667 -0.91800082 -1.1806469 4283518274
4.7853279 -0.79919034 -0.98376513 4284173885
4.7841907 -0.82920623 -0.98459065 4283976504
4.8040514 -0.86304623 -0.98995638 4281412906
5.6259527 -1.0464425 -1.1674389 4281023316
5.5973263 -1.0766904 -1.1626923 4281680710
4.8075051 -0.95533335 -0.99429023 4284832855
4.781424 -0.98068357 -0.98995638 4287397499
4.8164802 -1.0187129 -0.99883056 4293253330
4.996562 -1.0888888 -1.0390737 4279764482
5.0146093 -1.1250979 -1.0444394 4281540382
5.0104723 -1.1565062 -1.0450585 4283844420
5.0032816 -1.1872281 -1.0450585 4291148732
4.2791386 -1.0431149 -0.8894518 4283846219
4.2603178 -1.0662621 -0.88676894 4283318585
4.2461138 -1.0904351 -0.88511795 4283186991
4.2289352 -1.1137261 -0.88284779 4283382830
4.2087965 -1.1360824 -0.87995857 4284633667
4.1687393 -1.1527553 -0.87273544 4284043077
4.1775928 -1.1828456 -0.87624383 4281543714
4.8647571 -1.4097761 -1.0287549 4294309365
5.0820966 -1.5066411 -1.0784913 4291677645
3.1816094 1.0728396 -0.7102015 4294769914
3.2270486 1.0661697 -0.71935636 4287928982
4.0841861 1.1848176 -0.91008264 4285098086
4.1092181 1.1647971 -0.91422415 4286743170
4.1106448 1.1379975 -0.9129163 4285624948
4.1514654 1.1219289 -0.92076331 4289175969
4.191298 1.1051531 -0.92839241 4285684053
5.0656424 1.3027576 -1.1284915 4289235847
5.0763803 1.2723633 -1.1291454 4294964463
5.0755591 1.2391062 -1.1271837 4294965997
5.0621781 1.202971 -1.1223882 4281673752
5.0723176 1.1725475 -1.1230422 4294499259
5.1003637 1.1461143 -1.1278375 4293377445
5.1196952 1.117506 -1.1306713 4294963441
5.1761007 1.0966003 -1.1420058 4293719286
5.3758326 1.1045376 -1.1860363 4282534485
5.3997374 1.0749649 -1.1899599 4282013034
5.4445629 1.0492077 -1.1986787 4281817969
5.4729643 1.0198976 -1.2036922 4280500053
5.499289 0.98993212 -1.2082696 4287472568
3.351445 0.58162522 -0.72001028 4283260528
5.5687752 0.93205112 -1.2213479 4280767855
5.6023312 0.90237069 -1.2276692 4280372843
5.6251221 0.87066913 -1.2315927 4280110700
5.6487002 0.83886522 -1.2357342 4280307054
5.6788621 0.80776823 -1.2414014 4280176493
5.7020855 0.77541053 -1.245543 4280636276
5.71351 0.7412889 -1.2470688 4280567642
5.7315111 0.7078951 -1.2501204 4281816942
5.7541633 0.67487764 -1.2542619 4280505458
5.7601361 0.63977391 -1.2546978 4280308590
5.7697768 0.60503024 -1.2560056 4280243051
5.7636685 0.56865591 -1.2538259 4280372582
5.7553873 0.53219932 -1.2512102 4279907915
5.7488217 0.49603394 -1.2490305 4282073926
5.6904688 0.45582852 -1.2352983 4291807673
1.8808064 0.13826618 -0.38149837 4282926386
5.6956344 0.38596338 -1.2352983 4284704351
5.7095842 0.35173085 -1.237914 4287665553
1.8781606 0.10335211 -0.3804085 4283318325
1.8719361 0.091488242 -0.37888271 4283514415
1.868562 0.079831466 -0.37801081 4282854938
1.859264 0.068001837 -0.37583107 4283447595
1.8479403 0.056228742 -0.37321541 4285489746
1.827762 0.044378363 -0.36863798 4286543196
1.701148 0.030780207 -0.34030148 4285096781
1.7227741 0.020613026 -0.34509689 4281215782
1.72482 0.010054595 -0.34553283 4281215016
1.7121619 -0.00053359696 -0.3426992 4281478188
1.7131023 -0.011044841 -0.34291717 4281807153
1.7130022 -0.021556033 -0.34291717 4281741360
1.7157651 -0.032119218 -0.34357107 4281675821
1.7174872 -0.042693526 -0.34400702 4281806126
1.7249969 -0.053467628 -0.34575081 4281674799
5.7282705 -0.21002671 -1.2405295 4279702808
5.6800704 -0.24317664 -1.2300669 4280688926
5.7018666 -0.27916497 -1.2352983 4289506476
5.7010212 -0.31419924 -1.2355162 4286810503
5.6736584 -0.34762749 -1.2298489 4286808965
5.6626544 -0.3818447 -1.2278872 4283847769
5.6602049 -0.41658294 -1.2278872 4286480507
5.6896472 -0.45385984 -1.2350802 4287533199
5.6896725 -0.48901242 -1.2357342 4287138441
5.6836495 -0.52364641 -1.2350802 4287204232
5.6861572 -0.55908251 -1.2363881 4286875785
5.6942677 -0.59517664 -1.2390038 4286941830
5.6963291 -0.63074815 -1.2403116 4278192402
5.7301569 -0.67010164 -1.2488126 4280235857
5.7269063 -0.70536768 -1.2490305 4280960346
5.7215023 -0.74036902 -1.2488126 4286222751
4.7506943 -0.64460653 -1.0310576 4286218884
5.7409754 -0.81463242 -1.2553518 4279640359
5.7165594 -0.84698623 -1.2509923 4280566364
5.6958218 -0.87966609 -1.2475047 4281352780
5.6700816 -0.91135019 -1.2429273 4282795064
4.7874069 -0.79982585 -1.044354 4283384627
4.7929878 -0.8310172 -1.0467516 4283054635
4.7916408 -0.86110032 -1.0476235 4281743682
5.5692458 -1.0359639 -1.2254895 4280894562
5.5340314 -1.0645916 -1.2189503 4280896608
5.5120788 -1.0954869 -1.2154627 4281684059
5.4526682 -1.1185126 -1.2034742 4278456085
5.440928 -1.1509396 -1.2023844 4279572509
4.7681427 -1.0393755 -1.0502392 4281939254
4.7588181 -1.0679722 -1.0495853 4284768602
4.768343 -1.10088 -1.0532908 4284177494
5.2961392 -1.2568767 -1.1760097 4283056957
5.1479893 -1.2551657 -1.1437496 4279107584
4.9735551 -1.2450552 -1.1053864 4292069580
4.91572 -1.2626916 -1.0938338 4294635761
4.7974529 -1.2637687 -1.068331 4280093190
4.7839546 -1.2916565 -1.0670232 4282855466
4.8126264 -1.3311239 -1.0755241 4282134831
4.9414744 -1.3994235 -1.1073481 4294638332
4.9281077 -1.4283601 -1.1062583 4294638843
4.9389014 -1.4643933 -1.1108357 4294310392
4.9326248 -1.4955189 -1.1114897 4294442493
4.5922213 -1.6742924 -1.051983 4294572509
4.548924 -1.690209 -1.044136 4294375910
3.0960693 1.0871973 -0.73397177 4292074462
3.1247699 1.0757811 -0.73948073 4294638332
3.1451459 1.0612537 -0.7429238 4286349690
4.0806279 1.2114401 -0.96397096 4284704618
4.057137 1.1774299 -0.95639616 4278913290
4.0511756 1.1487973 -0.95318258 4283057473
4.1360035 1.1454726 -0.97223443 4283123516
4.1645651 1.1259136 -0.97751385 4287662197
4.1836295 1.1035653 -0.9804979 4292395950
4.9340615 1.2691151 -1.161605 4284036405
4.960638 1.2435483 -1.1661958 4280944387
4.9577737 1.2105482 -1.1636709 4281340937
4.9575324 1.1783051 -1.1618345 4280814343
4.9760485 1.1504943 -1.164589 4281471761
4.9906116 1.121647 -1.1664253 4291606714
5.2066016 1.1366591 -1.2169242 4286018169
5.2858429 1.120019 -1.2343693 4289706177
5.3116841 1.0914812 -1.23896 4283526273
5.3364182 1.0624784 -1.2433213 4282474870
5.3676858 1.034502 -1.2492893 4284776851
5.3930693 1.0051123 -1.2538801 4284119437
3.314718 0.59689766 -0.75440085 4282867830
5.4807544 0.95200896 -1.2720138 4281622399
5.509532 0.92221648 -1.2775228 4281162872
5.5400705 0.892416 -1.2834908 4280768884
5.5656409 0.86153132 -1.2883111 4280701808
5.5900774 0.83022332 -1.292902 4280308333
5.617229 0.79905874 -1.2981814 4280374387
5.6355286 0.76641232 -1.3013949 4280307040
5.6574993 0.73407209 -1.3055266 4285500059
5.678318 0.70137167 -1.3094288 4280765535
5.7153821 0.6703698 -1.3172332 4280239719
5.7242241 0.63582522 -1.318381 4280371051
5.7754498 0.60566092 -1.3296283 4280371303
5.7674341 0.56906599 -1.3268739 4280632668
5.7882624 0.5352791 -1.3310056 4281286989
5.7817407 0.49891675 -1.3287102 4287268225
5.7905145 0.4638972 -1.3300874 4282661432
1.8475428 0.1368728 -0.39700678 4279175938
1.851261 0.12573114 -0.39769539 4284702299
1.8568549 0.11466861 -0.39884311 4291742149
1.8614107 0.10348832 -0.39976126 4288717989
1.8629827 0.092112832 -0.3999908 4288127131
1.8547614 0.080302969 -0.39792493 4289967791
1.8386844 0.068310037 -0.39402276 4281543201
1.8244762 0.056577366 -0.39057967 4284304450
1.8481412 0.045957334 -0.39608863 4284567101
1.7530214 0.032850392 -0.37359369 4286937192
1.731779 0.021828335 -0.3685438 4281018142
1.7143613 0.011092518 -0.36441207 4281083941
1.7163438 0.00057339907 -0.36487117 4281346602
1.7133951 -0.0099403011 -0.36418253 4281807153
1.7084358 -0.02039412 -0.36303484 4281872946
1.7111977 -0.030929931 -0.36372346 4281675567
1.7090298 -0.041381501 -0.36326438 4281675050
1.7184721 -0.052164625 -0.36555979 4281675050
5.7804155 -0.24741183 -1.3245785 4280164910
5.7535133 -0.28163618 -1.3186104 4284967010
5.7225218 -0.31532532 -1.3117243 4287465862
5.7204795 -0.35043213 -1.3117243 4287137928
5.6599565 -0.3815935 -1.2979518 4287335808
5.6526546 -0.41595769 -1.2968042 4285755495
5.7644815 -0.45977286 -1.3238899 4287137667
5.7576728 -0.49480084 -1.3229717 4287401098
5.7448368 -0.52922642 -1.3206763 4286941313
5.7618222 -0.56646734 -1.3254967 4288454047
5.7611423 -0.6021142 -1.3261852 4286415236
5.7621756 -0.63798845 -1.327333 4279837484
5.7620196 -0.67378497 -1.3282511 4280761682
5.7519808 -0.70841312 -1.3268739 4280433487
5.7398043 -0.7426936 -1.3250376 4281026139
4.7263145 -0.64099568 -1.0849385 4285890690
4.7107286 -0.66834211 -1.0821841 4283522920
5.666431 -0.83951366 -1.3110356 4280633438
5.6419358 -0.87129408 -1.3064449 4281155914
5.6009283 -0.90017909 -1.2979518 4282402370
4.7985072 -0.80139256 -1.1074336 4283648571
4.7992539 -0.83181834 -1.1088108 4283253043
4.816092 -0.86521029 -1.1140902 4282399803
5.5168667 -1.0261446 -1.2834908 4281418072
5.4741473 -1.0529872 -1.2747682 4282407012
5.376894 -1.0685273 -1.252962 4280299318
5.4112344 -1.1099113 -1.2628322 4279179303
5.3157663 -1.1243558 -1.241485 4281946206
5.3277864 -1.1610979 -1.2460757 4281292136
5.3044171 -1.1901432 -1.2421736 4281422433
5.2666678 -1.215661 -1.2348284 4282339166
5.233541 -1.2418846 -1.2286307 4281812553
4.7908511 -1.1679014 -1.1230422 4283453772
4.7599912 -1.1913658 -1.1173037 4287332725
4.8204651 -1.2379869 -1.1338307 4285423699
4.8344254 -1.2732445 -1.1391101 4280619531
4.8114877 -1.2988244 -1.1354374 4281673508
4.8146839 -1.3314366 -1.1381919 4283518284
4.8120432 -1.3625453 -1.1395692 4293782760
4.8148098 -1.3952975 -1.1423236 4294901241
4.8257537 -1.4306252 -1.147144 4294770429
4.8252678 -1.4627506 -1.1492099 4294769403
4.8245687 -1.4949236 -1.1512756 4292793806
4.6065311 -1.4583844 -1.0996292 4289567369
4.5669355 -1.4767375 -1.0920544 4289699183
4.5771971 -1.5111413 -1.0968747 4292464289
4.54847 -1.5326695 -1.0920544 4294966508
4.5086069 -1.5501044 -1.0844795 4294505705
4.584425 -1.6077008 -1.1058267 4294702547
4.5222373 -1.6171159 -1.0927429 4290354524
4.4966846 -1.6391653 -1.0888407 4289893964
4.4911036 -1.6684207 -1.0899885 4289565528
4.4780512 -1.6949123 -1.0892998 4288446802
4.5048003 -1.7367148 -1.098711 4294832854
3.0161083 1.0792015 -0.75444466 4293060587
3.0574708 1.0728995 -0.76359266 4294176237
3.1126332 1.0708714 -0.77635163 4280098329
3.1209848 1.0523734 -0.77683312 4286615434
4.0663271 1.2612343 -1.0158843 4286154634
4.0507717 1.2292076 -1.0098659 4285033589
3.929842 1.1661879 -0.97664428 4294571256
4.0692797 1.1804886 -1.0108287 4284043599
4.8103566 1.3637486 -1.2000475 4294635232
4.8289223 1.3370584 -1.2026956 4282789410
4.8061171 1.299039 -1.1947513 4294038206
4.8243203 1.2722496 -1.1973994 4288972394
4.8038373 1.2353655 -1.1901773 4292855202
4.860281 1.218148 -1.2026956 4294959028
4.8337216 1.1800085 -1.1940291 4294496415
4.8569226 1.1541456 -1.1981217 4294035361
4.8733692 1.1265105 -1.200529 4293315262
5.0307508 1.1304551 -1.238806 4290431438
5.1400003 1.1219429 -1.2648056 4292606970
5.2123008 1.104278 -1.2814164 4291422696
5.2474995 1.0781415 -1.2886385 4281291866
5.2797165 1.0510451 -1.2951384 4286750629
5.3013144 1.0215713 -1.2989901 4283129452
5.3303819 0.99329615 -1.3047677 4282149495
5.3755393 0.96762913 -1.314638 4281953920
5.4014568 0.93811929 -1.3196934 4281952386
5.4367857 0.9099319 -1.3271563 4281755009
5.4643054 0.88010961 -1.3326932 4281426814
5.4935813 0.85028124 -1.3387116 4281359738
5.5284562 0.82098317 -1.3461745 4280834159
5.5506854 0.78950953 -1.3505076 4281293421
5.5823531 0.75910378 -1.3572483 4285959329
5.6042309 0.72708815 -1.3615816 4281421675
5.6182189 0.69387925 -1.3639889 4281422710
5.6512895 0.66279101 -1.3712111 4281160819
5.6610379 0.62874693 -1.3726554 4281028463
5.7101574 0.59876627 -1.38397 4281290346
5.7137241 0.56371814 -1.38397 4281023314
5.728673 0.52972353 -1.3868588 4286876310
5.7443857 0.49565032 -1.3899884 4282600539
1.8309777 0.14587323 -0.41548795 4281674280
1.8318383 0.13463579 -0.41548795 4280686102
1.8326299 0.12339333 -0.41548795 4281213737
5.803257 0.35752058 -1.4020252 4281351753
5.8208466 0.32276866 -1.405877 4280431418
5.81884 0.28685457 -1.404914 4280296495
5.7623096 0.24862334 -1.3904699 4282595131
1.7802671 0.065062881 -0.40176597 4283912513
1.821378 0.055403706 -0.41187689 4286147159
1.8022779 0.043743309 -0.40706217 4286080594
1.7045 0.030843163 -0.3827478 4287463282
1.6978635 0.020298071 -0.38106266 4280228372
1.7202792 0.010025049 -0.3865996 4280887332
1.6931318 -0.00054065482 -0.37985897 4281281062
1.6998907 -0.010968674 -0.38154414 4281873199
1.706585 -0.021479657 -0.38322929 4281807406
1.7073915 -0.031968165 -0.38347003 4281741613
1.7023118 -0.042326622 -0.38226634 4281806890
1.7194827 -0.053300448 -0.3865996 4281543464
1.7365822 -0.064486556 -0.39093286 4283255110
5.6770587 -0.2430483 -1.3692851 4279968045
5.7966404 -0.28378564 -1.3993771 4280032284
5.7909131 -0.31913498 -1.3984143 4283648330
5.7830334 -0.35430637 -1.3969698 4280752933
5.7807508 -0.38978374 -1.3969698 4280886312
5.4907575 -0.40414691 -1.3254712 4280162839
5.8161683 -0.46392623 -1.4070807 4287991956
5.8103113 -0.49935612 -1.4063585 4287466131
5.7800751 -0.5325104 -1.3996179 4286940046
5.7738013 -0.56768191 -1.3988956 4283058772
5.74511 -0.60048038 -1.3926365 4278584587
5.7297416 -0.6344409 -1.3897477 4281084980
5.7199559 -0.6689108 -1.3883033 4281088072
5.7070737 -0.70292908 -1.3861367 4281026397
5.6853271 -0.7356953 -1.3818034 4281156458
5.6672401 -0.7687422 -1.3784331 4286549929
5.6470408 -0.80132258 -1.3745813 4280367178
5.6218548 -0.8329739 -1.3695258 4280566097
5.6051269 -0.86567789 -1.366637 4281616463
5.5278358 -0.88851666 -1.3485818 4282925371
4.8023443 -0.80231768 -1.1675481 4283646520
4.8030691 -0.83276272 -1.1689925 4283121205
4.8169756 -0.86564696 -1.1738073 4282268470
5.4299335 -1.0100793 -1.3298043 4282600278
5.3254585 -1.0245129 -1.3050085 4280498249
5.3819046 -1.069644 -1.3208971 4279444272
5.2801566 -1.0831628 -1.2968235 4280301383
5.3189931 -1.1251729 -1.3083788 4281422182
5.2958665 -1.1542782 -1.3042864 4281684578
5.262166 -1.1808066 -1.2975457 4281552730
5.2141538 -1.2036935 -1.287194 4281355864
5.1726713 -1.2276034 -1.2785275 4281355865
5.1056314 -1.244848 -1.2633611 4281158750
4.9397097 -1.2365906 -1.2229174 4281090639
4.9404902 -1.2690481 -1.2250841 4280889651
4.7721047 -1.2570978 -1.1839181 4281478954
4.7474337 -1.2818053 -1.1795849 4281741093
4.730124 -1.3083256 -1.1771775 4286741616
4.6491613 -1.3167125 -1.1584002 4292137156
4.6484532 -1.3473742 -1.160326 4291612353
4.6922126 -1.3913103 -1.1738073 4294506995
4.6993785 -1.4248588 -1.1778997 4294572539
4.6924014 -1.4542409 -1.1783812 4294901243
4.6769128 -1.4809561 -1.1766961 4294766305
4.5541391 -1.4729154 -1.1470855 4287131983
4.4869475 -1.4816723 -1.1319191 4289696344
4.4593749 -1.5029805 -1.1271044 4289892686
4.439054 -1.5265296 -1.1242156 4289105236
4.428688 -1.5534173 -1.1239748 4288909914
4.4629436 -1.5962408 -1.1355302 4293581730
4.4913673 -1.6375492 -1.1456411 4286868793
4.4739561 -1.6623743 -1.1437153 4287724605
4.4691186 -1.6918551 -1.1451596 4288382533
4.4686155 -1.723084 -1.1478077 4287330643
4.4940996 -1.7646514 -1.1574372 4292335563
4.0466995 1.5043139 -1.085068 4293651687
4.0531263 1.4784609 -1.0843112 4287991422
4.0517893 1.4218844 -1.0790142 4281282594
3.1389802 1.0800618 -0.8250103 4283061331
4.083622 1.3214246 -1.0785098 4287206031
4.085196 1.2942978 -1.0767441 4286021505
3.8331528 1.1629066 -1.0038472 4293122783
3.9051566 1.1586256 -1.0215039 4282788909
4.1120119 1.1925745 -1.0757351 4288906118
4.7234893 1.3384919 -1.2394377 4291669924
4.7260175 1.3079357 -1.2379243 4286867022
4.7162037 1.274119 -1.2331318 4294962902
4.20367 1.1080678 -1.0928873 4289170796
4.7314844 1.2161481 -1.2331318 4294953884
4.7285323 1.1845077 -1.2303572 4294954135
4.7366509 1.1557009 -1.2306094 4294102171
4.7624831 1.1310861 -1.2356541 4292266927
5.0003314 1.1551901 -1.2974526 4283129444
5.0016603 1.1232152 -1.2959391 4283132276
5.0065675 1.0920922 -1.2954346 4292867317
5.0576687 1.0707684 -1.3072898 4284577150
5.1684136 1.0611144 -1.335036 4284383118
5.1976051 1.0339109 -1.3410897 4283202185
5.250412 1.0109613 -1.3534495 4282545544
5.2907648 0.98510045 -1.36253 4282808200
5.3329005 0.95912468 -1.372115 4282081394
5.3577538 0.92969197 -1.3771598 4282739835
5.3748107 0.89871413 -1.3801867 4282280832
5.4127069 0.87094235 -1.3887628 4282019202
5.4495077 0.84259146 -1.3970866 4281753712
5.4852052 0.81367958 -1.4051583 4284248187
5.5111718 0.78300077 -1.4107075 4284702049
5.5340905 0.75164324 -1.4155 4294899180
5.5539532 0.71966106 -1.4195359 4287791220
5.5592246 0.68568742 -1.4197881 4281342479
5.585433 0.65415114 -1.4255896 4280157700
5.6210799 0.62338495 -1.4339135 4280752145
5.6382732 0.59029263 -1.4374448 4281015830
5.6543083 0.55691791 -1.4407239 4286938732
5.6643639 0.52283537 -1.4424895 4283186220
5.6848192 0.48956287 -1.4470298 4284962123
5.6906095 0.45490342 -1.4477866 4285619540
5.701014 0.42054692 -1.4498044 4285618770
1.8329337 0.12417166 -0.43858129 4285427310
5.7839794 0.35535631 -1.4702357 4287922293
5.7048903 0.31537858 -1.4490477 4288118643
5.7183166 0.28093711 -1.4520745 4283973945
5.7170324 0.24572043 -1.4513179 4282790443
1.7991335 0.066537298 -0.42899624 4282267171
1.7879014 0.055141333 -0.42596939 4285950029
1.7882062 0.04416994 -0.42596939 4286410832
1.7458733 0.03241596 -0.41487092 4288978053
1.7170116 0.021348527 -0.40730375 4280163094
1.7074338 0.010753999 -0.40478137 4281346602
1.7132736 0.00027679934 -0.40629479 4281346086
1.6938901 -0.010115639 -0.40125003 4282004015
1.727662 -0.020926796 -0.41007838 4282070062
1.7362084 -0.031688008 -0.41234851 4281938474
1.7485572 -0.042650133 -0.41562763 4281872168
1.7589018 -0.05370548 -0.41840222 4281478699
1.7595063 -0.064532571 -0.41865447 4281018670
1.7677782 -0.075702004 -0.42092463 4281018930
5.5762429 -0.2739197 -1.4149956 4290883229
5.368659 -0.29673979 -1.3612688 4289632646
5.3754301 -0.3302103 -1.363539 4287527272
5.3935771 -0.36455894 -1.3688359 4291344034
5.3815885 -0.396934 -1.3663136 4291474848
5.5430307 -0.44306606 -1.4091941 4289238656
5.5161057 -0.47499192 -1.4028882 4289238917
5.6807475 -0.52431524 -1.4467776 4284896839
5.6774235 -0.55916172 -1.4467776 4283055153
5.6883216 -0.59549952 -1.4505612 4280688407
5.6730189 -0.62911052 -1.4475343 4282006333
5.648869 -0.66154271 -1.4422373 4281087302
5.656229 -0.69761318 -1.4452641 4280694351
5.6268911 -0.7290715 -1.4387059 4280695642
5.6098466 -0.76188993 -1.4354268 4279181120
4.7112188 -0.66924775 -1.2000886 4283457915
5.5684876 -0.82598644 -1.427103 4280565075
5.5145435 -0.85259455 -1.4142388 4281288276
5.4996548 -0.88487726 -1.4117165 4282467913
4.8393998 -0.80909073 -1.2386811 4283254334
4.82195 -0.83661807 -1.235402 4282924846
4.8452964 -0.87132949 -1.242969 4282464558
5.3126578 -0.98910344 -1.3683314 4282401093
5.3520985 -1.0304676 -1.3804389 4281746513
5.0979705 -1.0139997 -1.3146048 4280299841
5.2954473 -1.0871139 -1.3688359 4279706926
5.1097569 -1.0816957 -1.3211629 4293718006
5.1436768 -1.1218983 -1.3320092 4282270788
5.2008972 -1.1678596 -1.3491614 4280102964
5.1785483 -1.1962637 -1.3451256 4281614149
5.029891 -1.1944689 -1.3072898 4289048756
4.8071899 -1.1727718 -1.2495273 4285694858
4.7811303 -1.1975424 -1.2444825 4280563005
4.9714394 -1.2776947 -1.2977048 4280168506
4.929821 -1.2992941 -1.2886242 4280826430
4.7909732 -1.2941793 -1.2533108 4282138171
4.6374574 -1.2832806 -1.2139617 4288386441
4.6220479 -1.3096002 -1.2119437 4292138688
4.6204305 -1.339823 -1.2137095 4293520854
4.6167612 -1.3695245 -1.2149706 4294243813
4.6045675 -1.3967029 -1.2139617 4294704626
4.6116228 -1.4298024 -1.2182497 4294704113
4.5972281 -1.4563181 -1.2167363 4284760630
4.5651889 -1.4770498 -1.2104304 4284430888
4.5174503 -1.4922824 -1.1998364 4286207290
4.4596119 -1.5035836 -1.1864678 4287919947
4.4402366 -1.5274556 -1.1836931 4288840782
4.4271288 -1.5533898 -1.1826842 4288775242
4.4166036 -1.5801988 -1.1824319 4288251735
4.4159145 -1.6105853 -1.1849543 4288514658
4.4676256 -1.660581 -1.2021065 4283381521
4.497169 -1.7030444 -1.213205 4286208813
4.534483 -1.7490672 -1.2265736 4289172321
4.5371757 -1.7821651 -1.2303572 4294569942
4.0468845 1.5623361 -1.1430051 4287404180
4.0419621 1.5320007 -1.1387939 4289507755
4.0295877 1.499092 -1.1324772 4291807139
2.896955 1.0571862 -0.80084574 4287003495
4.0331497 1.4443215 -1.128266 4286015299
4.0137215 1.4096297 -1.1201068 4282527780
3.1548927 1.0860401 -0.86980402 4291349442
4.0489979 1.3664436 -1.1253707 4287399544
4.0802031 1.3491518 -1.1319507 4286805105
4.0599551 1.3148685 -1.1237916 4287992728
4.1176009 1.3056926 -1.1380044 4291808720
3.7127891 1.1521802 -1.0200909 4292466900
4.2791553 1.2993925 -1.1795899 4286150506
4.5052891 1.3379842 -1.2417051 4287004527
4.0955982 1.1889037 -1.1230021 4288581500
4.6253114 1.3121104 -1.2711834 4289959289
4.5867925 1.2708145 -1.2580234 4290616710
4.5516672 1.2310497 -1.2459162 4294236087
4.6104364 1.2166494 -1.2603922 4294824362
4.6122093 1.1868935 -1.258813 4294559636
4.6240835 1.1597457 -1.260129 4293905054
4.6442323 1.1345595 -1.2638137 4291015837
4.9148288 1.1688235 -1.3377728 4282866524
4.9416456 1.1432157 -1.3433001 4290370782
4.9833913 1.1207126 -1.3530384 4282340431
4.9798069 1.0878469 -1.3501432 4287926666
4.9863877 1.0572708 -1.3501432 4294964983
3.1964777 0.65685469 -0.84980088 4285105042
4.9545197 0.98713034 -1.3377728 4294112764
5.0381575 0.97171074 -1.3593552 4281684830
5.2374873 0.97690797 -1.4130479 4283333001
5.2661691 0.94886374 -1.4193647 4282611339
5.2966037 0.92083502 -1.4262079 4281820014
5.3297458 0.89294726 -1.4338408 4282608251
5.3675065 0.8654561 -1.4427896 4282214012
5.3860626 0.83457643 -1.4464743 4282016631
5.4168458 0.80534863 -1.4535807 4280698964
5.4455628 0.77550179 -1.4601606 4281619034
5.4722037 0.74507207 -1.4662143 4282082675
5.4690189 0.71048528 -1.4641087 4280834156
5.5067849 0.68106627 -1.4733206 4281094507
5.5233159 0.64873004 -1.4767423 4281225575
5.5530806 0.61771262 -1.4838487 4281422437
5.5625229 0.58423376 -1.4854279 4284244325
5.5612025 0.54961634 -1.4841118 4280097828
5.5529428 0.51441276 -1.4809535 4281943389
1.8238933 0.15689075 -0.45894951 4280689185
1.8430927 0.14716715 -0.46395028 4282728516
5.5831451 0.37929362 -1.4862174 4281024593
5.5622578 0.34359655 -1.4799006 4280826450
5.5681148 0.30967578 -1.4809535 4280564303
5.5776181 0.27588755 -1.483059 4282207591
5.3594532 0.23209412 -1.4230496 4282143587
1.808185 0.066414796 -0.45315909 4283976255
1.8047014 0.055198248 -0.4521063 4285816393
1.8320104 0.044801425 -0.4594759 4286934353
1.72229 0.03147522 -0.42947114 4287594342
1.7272741 0.020968681 -0.43078715 4280293136
1.7061464 0.010228125 -0.42499673 4281214500
1.7090713 -0.00023920514 -0.42578635 4281609257
1.7022845 -0.010688111 -0.42394394 4282070062
1.7031516 -0.021144245 -0.42420715 4282267441
1.7145648 -0.031800967 -0.42736554 4282135853
1.7249465 -0.042575389 -0.43026075 4281807404
5.2336431 -0.1910803 -1.3883072 4282070853
1.7566423 -0.07570935 -0.43920952 4281217862
1.7677079 -0.087048225 -0.44236791 4280888379
5.2369461 -0.28780398 -1.3904128 4282466114
5.3150067 -0.32479841 -1.4122584 4283848276
5.2869244 -0.35566199 -1.405152 4284901726
5.3212042 -0.39077219 -1.4151535 4286873725
5.3706393 -0.42753792 -1.4293664 4284045131
5.381372 -0.46163499 -1.4330511 4283717195
5.4255133 -0.49896488 -1.4459479 4280888624
5.477078 -0.53760594 -1.4609503 4280757038
5.5149364 -0.57549936 -1.4722679 4279704857
5.5036302 -0.60848105 -1.4701623 4280494373
5.4537969 -0.63687789 -1.4575287 4280033572
5.5512867 -0.68279243 -1.4854279 4280167982
5.5154181 -0.71276796 -1.4767423 4280562486
5.4363699 -0.73650998 -1.4562126 4281482309
5.1652412 -0.7321384 -1.38278 4287730075
5.397337 -0.79879498 -1.4480535 4280163367
5.3465662 -0.82484674 -1.4354199 4279112470
4.8898845 -0.78523952 -1.3106633 4282269759
4.8402481 -0.80777526 -1.2982929 4283189311
4.8199902 -0.83482867 -1.2940817 4282924080
4.8470635 -0.8701762 -1.3030305 4283054900
5.3007255 -0.98511809 -1.4304191 4280095246
5.2538419 -1.0098032 -1.4191015 4287860363
5.2153721 -1.0356394 -1.4101528 4286677888
4.9036403 -1.0051209 -1.3251393 4286020985
4.7869406 -1.0118728 -1.2943449 4289109660
4.7910113 -1.0434817 -1.2972401 4283122233
4.9803329 -1.1167185 -1.3519857 4280230941
4.9856081 -1.1500726 -1.3554072 4281087543
4.9784579 -1.180642 -1.3554072 4280101678
4.9870553 -1.2150457 -1.3598816 4280497465
4.9888654 -1.2479619 -1.3625137 4280301375
4.9325199 -1.2660881 -1.3488272 4280302151
4.9078641 -1.2919129 -1.3440896 4280171857
4.8597903 -1.3112059 -1.332772 4280828497
4.5708132 -1.2634461 -1.2532858 4278325015
4.5406947 -1.2851682 -1.246969 4293914866
4.5114093 -1.3068367 -1.2409154 4294835447
4.5107064 -1.3366846 -1.243021 4294178022
4.5134997 -1.3676912 -1.2461795 4290624428
4.5105524 -1.397071 -1.2477586 4284634170
4.4908571 -1.4212307 -1.2446002 4285878333
4.4802155 -1.4481664 -1.2440737 4284562733
4.4831567 -1.4795568 -1.2474954 4284234799
4.4474783 -1.4981127 -1.2398626 4283116570
4.4464135 -1.5281937 -1.2422314 4282986775
4.4387741 -1.5560855 -1.2427578 4284830000
4.4318681 -1.5842656 -1.2435474 4282723852
4.4546986 -1.6233122 -1.2530226 4286145355
4.4627438 -1.6573279 -1.2582866 4286671435
4.4894886 -1.6986681 -1.2690778 4284169750
4.4753804 -1.7247964 -1.2680249 4287063600
4.454833 -1.7483497 -1.2651298 4287788852
4.4735889 -1.7874565 -1.2738154 4287264589
4.6037493 -1.8722621 -1.3154008 4290692795
4.0150619 1.5496973 -1.1877027 4294439920
2.7304983 1.0348212 -0.79275072 4292402130
2.7395003 1.019053 -0.79357409 4287398228
4.0031595 1.4610281 -1.1756263 4286672184
4.041925 1.4471315 -1.1846836 4285424705
3.2014744 1.1241968 -0.92778641 4280621315
3.9820921 1.3708239 -1.1613542 4285093924
3.9785833 1.3423691 -1.1577861 4291146110
3.990397 1.3191386 -1.158884 4290685850
3.9499283 1.2789345 -1.1443375 4293847009
3.6139519 1.1457335 -1.041414 4291676608
4.1526852 1.2884817 -1.2003279 4294177240
4.2405667 1.2872707 -1.2242061 4284176186
4.4548817 1.32251 -1.2856858 4281739026
4.1535339 1.2053958 -1.1937408 4294831059
4.4763265 1.2693158 -1.2873325 4284697642
4.4868107 1.2425954 -1.2881559 4294299552
4.4999204 1.2165467 -1.2898028 4294690199
4.4998617 1.1869514 -1.2876071 4294954145
4.5154419 1.1614736 -1.2900772 4293770144
4.5392728 1.137953 -1.2950175 4291867054
4.8142772 1.1755219 -1.3737884 4293327870
4.8560147 1.1541846 -1.3839434 4286487959
4.8592577 1.1235007 -1.3828456 4292470492
4.8416667 1.0881832 -1.3757095 4293718241
3.1412067 0.68591726 -0.87701076 4289045147
4.7427092 1.0049745 -1.3430486 4294967273
4.7459602 0.97527444 -1.3422251 4293782997
4.7622294 0.94820011 -1.3452442 4294769128
4.7641807 0.91823411 -1.3441464 4294573301
5.0438719 0.9400574 -1.4237405 4282669406
5.2246284 0.94059849 -1.4745162 4283196267
5.2483025 0.91164851 -1.479731 4282339416
5.2756109 0.88307816 -1.4860436 4281879386
5.3236513 0.85756969 -1.4983944 4284185478
5.335465 0.82591748 -1.5003157 4281026899
5.3613582 0.79627049 -1.5063539 4283461238
5.3947039 0.76741964 -1.5145878 4281423716
5.4136038 0.73624671 -1.5187047 4280637031
5.4056225 0.70140791 -1.5151366 4280570466
5.4250941 0.67011148 -1.519528 4281355865
4.9811811 0.58430374 -1.390805 4281024326
4.8699856 0.54099756 -1.3578695 4281812293
4.8349595 0.50709665 -1.346891 4285821806
4.7891746 0.47260806 -1.3328934 4289767077
1.844744 0.17085993 -0.48809707 4288256660
4.7658725 0.41132376 -1.3246595 4289309359
4.7625551 0.38161278 -1.3230127 4290493633
4.7619305 0.35217062 -1.3221893 4291875286
4.7611232 0.32275042 -1.321366 4280889402
4.8062043 0.29618883 -1.3337168 4281286478
5.4358535 0.3014729 -1.5132154 4280697935
5.3828568 0.26541802 -1.497571 4282212737
5.1893601 0.22398143 -1.4418551 4282211700
1.8369483 0.068245895 -0.48398012 4283252542
1.8181096 0.056381285 -0.47849089 4284436808
1.8088082 0.044987477 -0.47574627 4286671435
1.7542485 0.03287312 -0.4601019 4286671951
1.7448021 0.021989578 -0.45735726 4280622616
1.7199031 0.011127127 -0.45022121 4281083941
1.7160926 0.00057337165 -0.44912335 4281478439
1.7218332 -0.0099911578 -0.45077014 4282135340
1.724624 -0.020591026 -0.45159352 4282332719
1.7311954 -0.031295896 -0.45351478 4282135340
1.747313 -0.042317122 -0.45818064 4281411619
5.2089648 -0.19090213 -1.4470699 4281878615
5.1538954 -0.2205538 -1.4317 4282014062
5.1572471 -0.25240874 -1.4330723 4282080114
5.1738443 -0.28505474 -1.4382871 4283457145
5.1576009 -0.31591254 -1.4341701 4284641418
5.1680379 -0.34839478 -1.4377382 4282145129
5.1753926 -0.3808051 -1.4404827 4284116337
5.2956529 -0.42234781 -1.4756141 4288584083
5.3207459 -0.45722291 -1.4835734 4280491281
5.3187976 -0.48995006 -1.4838479 4285099877
5.3281317 -0.52380025 -1.4874159 4281745715
5.3382068 -0.5578835 -1.4912584 4283192910
5.3346834 -0.59062761 -1.4912584 4279967779
5.3280935 -0.62301421 -1.490435 4279704097
5.3461213 -0.6584 -1.4967476 4280295464
5.3772655 -0.69575882 -1.5069028 4279441952
5.3547902 -0.72628319 -1.501688 4280494640
5.3559456 -0.75993675 -1.5033348 4279310620
4.7157769 -0.69860333 -1.3199936 4288587945
5.3538194 -0.8267799 -1.5055305 4279771674
4.8815393 -0.78450888 -1.3704948 4281085734
4.8605099 -0.81175262 -1.3658289 4282071091
4.8440681 -0.83958936 -1.3625354 4286280560
4.8568072 -0.8725282 -1.3677502 4285689193
4.8627071 -0.90442336 -1.3710437 4285163886
4.8315701 -0.92933732 -1.3636333 4283717721
4.8653893 -0.96684068 -1.3751607 4282666314
5.1965919 -1.0658697 -1.4734184 4280825147
5.1654935 -1.0925601 -1.4662822 4280760637
5.0478282 -1.100065 -1.4338957 4282206024
4.9490342 -1.1103799 -1.4069983 4279835418
4.884037 -1.1273127 -1.3899816 4280163357
5.0023985 -1.1870185 -1.4267596 4280360736
4.9884815 -1.2160957 -1.4248384 4280493096
4.9538746 -1.2399086 -1.4168789 4280627771
4.9061251 -1.2599932 -1.4050771 4280564296
4.8648262 -1.2812537 -1.3951964 4280564555
4.8160253 -1.3000498 -1.3831201 4280499280
4.766252 -1.3180393 -1.3707693 4280828758
4.6618543 -1.3200063 -1.3422251 4280102453
4.4227729 -1.2816553 -1.2736094 4294506742
4.4120598 -1.3079487 -1.272786 4294967291
4.3929086 -1.3316474 -1.2694925 4294704887
4.3791437 -1.3568686 -1.2678457 4294506993
4.3872371 -1.3889385 -1.272786 4294505968
4.3978457 -1.4220465 -1.2785498 4283709995
4.3844719 -1.4474968 -1.2771775 4285746747
4.3773303 -1.4749864 -1.2777264 4285352500
4.389112 -1.50901 -1.284039 4283842603
4.3797703 -1.5359125 -1.284039 4284898119
4.4227781 -1.5815409 -1.2999579 4285424176
4.4193149 -1.6109548 -1.301879 4287067447
4.4111495 -1.6387106 -1.302428 4287855435
4.4333868 -1.6780028 -1.3123087 4288975206
4.4822226 -1.7280084 -1.3304232 4286011182
4.4724307 -1.7558297 -1.3306977 4286802224
4.4901447 -1.7946616 -1.3394805 4285226037
4.4763765 -1.8210918 -1.3386571 4292731614
4.0164595 1.6074947 -1.2463592 4283981671
4.0235715 1.5817672 -1.2455037 4294834678
2.6536677 1.0240399 -0.80546081 4293584353
2.6500432 1.0039986 -0.80232376 4285293142
4.0026021 1.4890442 -1.2298183 4285819211
4.0422721 1.4756399 -1.2395147 4283384617
4.0295963 1.4430479 -1.2326702 4283121195
3.1911068 1.1204708 -0.96545041 4285158974
3.9536657 1.3613235 -1.2032961 4286404654
3.9574039 1.335505 -1.2018701 4284828993
3.9491451 1.305777 -1.1967367 4294834418
4.0008473 1.2957078 -1.2104257 4288184664
4.0452647 1.2827333 -1.2218331 4292521597
4.2654138 1.3238574 -1.2879964 4291142027
4.3514056 1.3213524 -1.3122373 4292329648
4.2657199 1.2667718 -1.2831483 4280226056
4.2752533 1.241109 -1.2837186 4293908655
4.3611603 1.2371063 -1.3079594 4294166422
4.3963771 1.2180077 -1.3165151 4294755473
4.3982172 1.1895063 -1.314804 4294821787
4.4239664 1.1673927 -1.3205076 4294493091
4.4412565 1.1428559 -1.3236448 4293444792
4.7410154 1.1891034 -1.4134785 4292267470
4.7780156 1.1672766 -1.4226044 4292929242
4.6610765 1.1084151 -1.3846747 4291545520
3.1056108 0.71801496 -0.90755755 4289707440
4.7089257 1.0589221 -1.3952266 4294770393
4.7340608 1.034104 -1.4009303 4294966742
4.747817 1.0066291 -1.4032118 4294967257
4.7689252 0.98057038 -1.4077748 4294638553
4.7532334 0.94697779 -1.4012154 4294966769
4.7391915 0.9139784 -1.3952266 4293786093
4.7362309 0.88329846 -1.3926599 4294242265
4.7066612 0.84792459 -1.382108 4294440917
4.7070546 0.81820726 -1.380682 4294966495
4.716712 0.79010278 -1.382108 4294966756
4.7280951 0.76221615 -1.3841043 4294967283
4.7090044 0.72951657 -1.3769746 4283585106
4.6887436 0.69693893 -1.3695598 4282665035
1.8861759 0.26783666 -0.52597797 4283392104
1.8839849 0.2557402 -0.52483726 4282404943
1.9016765 0.24627805 -0.52968538 4281614915
1.8888838 0.23283724 -0.52540761 4284114279
1.8988441 0.22225097 -0.52797431 4283652957
1.9116029 0.21186966 -0.53139651 4284639082
1.8966624 0.1984309 -0.52654833 4284374109
1.8883061 0.18584479 -0.52369648 4284106820
1.8932284 0.17460932 -0.52483726 4287398277
1.8980838 0.16332041 -0.52597797 4285492076
1.896184 0.15144025 -0.5251224 4285427302
1.8970774 0.13980263 -0.5251224 4286215268
1.9055496 0.12868106 -0.52740389 4285362017
1.9072601 0.1170457 -0.5276891 4285097819
1.9041142 0.10512707 -0.52654833 4286083936
1.899937 0.093203902 -0.5251224 4286281063
1.8889823 0.081044227 -0.5217002 4282070576
1.8587943 0.068306483 -0.5125742 4280227596
1.8275644 0.055912379 -0.50316304 4284896318
1.8125423 0.044312887 -0.4986001 4287262545
1.7840312 0.03264555 -0.4900445 4286999635
1.7583213 0.021366643 -0.48234448 4280227092
1.7382917 0.010442903 -0.47635552 4280887080
1.7268214 -0.00022952381 -0.47293332 4281412906
1.7287045 -0.010835813 -0.47350368 4282135601
1.7381895 -0.021555131 -0.47635552 4282595378
1.7495242 -0.032425493 -0.47977778 4282595378
1.7674981 -0.043596752 -0.48519632 4281675820
1.8639591 -0.057357818 -0.51400012 4281806377
1.8779397 -0.069315121 -0.51827794 4284699986
1.8659877 -0.080349036 -0.51485568 4284436555
1.8664169 -0.091843523 -0.51514089 4287067758
1.8763458 -0.1038701 -0.51827794 4283581505
1.8766297 -0.11543944 -0.51856315 4285490272
1.8701481 -0.12656732 -0.51685202 4283450940
1.8693362 -0.13803995 -0.51685202 4289043595
1.8808752 -0.15049346 -0.52055943 4281739545
1.8808713 -0.16211317 -0.52084464 4281542423
1.9218376 -0.17750409 -0.53339285 4282399025
1.9264357 -0.18985349 -0.53510398 4280951328
1.9280945 -0.20196812 -0.53595948 4280557340
1.9249135 -0.21358463 -0.53538913 4282136629
1.9226147 -0.22528069 -0.53510398 4280624682
5.0929227 -0.62651247 -1.4859159 4282863952
5.175487 -0.6689108 -1.5118679 4281285182
5.0820017 -0.68857783 -1.4850603 4280495931
5.1763787 -0.73371458 -1.5147197 4279905077
5.2457366 -0.7763918 -1.5369643 4280760384
4.7785931 -0.73734808 -1.3977933 4278323974
4.9329715 -0.79214823 -1.4457046 4280821538
4.8684559 -0.81247592 -1.4277378 4280819228
4.8614898 -0.84200621 -1.4271674 4283119929
4.8703837 -0.87435699 -1.4314452 4280424722
5.0420928 -0.93711048 -1.4850603 4281676608
5.2235637 -1.0039905 -1.5418124 4280429360
5.0302138 -0.99891412 -1.4850603 4282338899
5.0718789 -1.0395645 -1.4996048 4280892493
4.9997582 -1.0568054 -1.4796418 4280366663
4.9969263 -1.0882784 -1.4807825 4280102717
5.0004425 -1.1212229 -1.4839196 4280561461
4.9719877 -1.1469338 -1.4773602 4280560170
4.8109679 -1.1409624 -1.4303045 4280427042
4.9491568 -1.2058212 -1.4747936 4279968298
4.8988905 -1.2254764 -1.461675 4280365374
4.8578558 -1.2469413 -1.4514083 4280628808
4.8139615 -1.2672179 -1.440286 4280694850
4.7681527 -1.286504 -1.4285934 4280695365
4.7195177 -1.3045108 -1.4160452 4280632666
4.6782212 -1.324056 -1.4057784 4281289050
4.3938017 -1.2728008 -1.3202225 4278786847
4.3087101 -1.2768806 -1.2962668 4293454567
4.2925377 -1.3007947 -1.2937001 4294704115
4.2808132 -1.3259754 -1.2925594 4294704372
4.269855 -1.3513501 -1.2917038 4294770683
4.2779002 -1.3828262 -1.2968372 4294638069
4.2702451 -1.4093491 -1.2971224 4294638068
4.2633343 -1.4361358 -1.2976928 4290426290
4.2517223 -1.4613341 -1.2968372 4294638582
4.2426753 -1.4873946 -1.2968372 4294441464
4.3598361 -1.5585363 -1.3367633 4294966782
4.4087315 -1.6065744 -1.3553004 4286477153
4.409574 -1.6375972 -1.3587227 4287200078
4.4119945 -1.6693685 -1.3627152 4288907608
4.4884286 -1.7298213 -1.3903784 4284497425
4.4777303 -1.7573293 -1.3903784 4286604338
4.4793248 -1.7897468 -1.394371 4294833617
4.4229736 -1.7987936 -1.3798265 4292139734
4.0261307 1.6397374 -1.3079377 4286614164
2.5818441 1.0332434 -0.82188278 4286678414
2.5890243 1.0177312 -0.8221792 4294834678
2.5961113 1.00217 -0.82247555 4288714632
4.0097852 1.5194597 -1.2895625 4281804300
2.6198516 0.97456336 -0.82632846 4288319347
3.9760909 1.451152 -1.2723727 4284634183
3.2277877 1.1557282 -1.022825 4282790942
3.9584539 1.3899132 -1.2608141 4285814070
3.947943 1.3590717 -1.2545903 4289303194
3.4666142 1.1696838 -1.0942514 4294702308
4.0268955 1.3312004 -1.27504 4286474033
4.0486174 1.3108785 -1.2794857 4289758563
4.1940618 1.3295811 -1.3242383 4289428845
4.2723799 1.3256085 -1.3470591 4293574808
4.2795191 1.2990913 -1.3467628 4294961602
4.2443767 1.2600369 -1.3328332 4282133284
4.2575316 1.235567 -1.3346114 4292132254
4.2925987 1.2172341 -1.3435026 4294558110
4.2935438 1.1890885 -1.341428 4294753943
4.301681 1.1629705 -1.3417244 4293049496
4.3410583 1.1450771 -1.3520975 4291934625
4.6578717 1.1980972 -1.4513831 4291876053
4.6864433 1.1748344 -1.4581997 4288461500
3.0624366 0.74791241 -0.93717265 4286481779
4.670773 1.1101711 -1.4487158 4278721553
4.610498 1.0660057 -1.4273767 4289837222
4.5284271 1.017807 -1.3992212 4292333747
4.5075269 0.98409641 -1.3906263 4294767310
4.5153484 0.95681608 -1.391219 4294965202
4.7119846 0.9682954 -1.4516795 4294506456
4.6681924 0.92948425 -1.4359716 4288127385
4.6512995 0.89648712 -1.4288586 4288195763
4.6445069 0.86565644 -1.4250058 4288984244
4.6252918 0.83274394 -1.4173 4287470225
4.6161995 0.80189723 -1.4128544 4293521641
4.5984254 0.76977515 -1.4057415 4294441701
4.604948 0.74184889 -1.4063342 4292204230
4.6603804 0.72146535 -1.4223384 4294243560
4.7110109 0.69972807 -1.4368608 4294440663
4.6584821 0.66274214 -1.4190782 4286480740
4.6586752 0.63363123 -1.4178928 4288391326
5.1275215 0.66534281 -1.5634129 4282797900
4.9191833 0.60765725 -1.4970249 4278650631
4.7862239 0.56145 -1.4543469 4290162601
4.7117414 0.52343112 -1.4300442 4282004783
4.7053657 0.49351504 -1.4270804 4280492573
4.6807418 0.46191642 -1.4184855 4279374863
4.7281861 0.43731773 -1.4324151 4279769623
4.6860576 0.40444171 -1.4184855 4280032284
4.6884508 0.37568101 -1.4184855 4279571735
4.6687613 0.3452878 -1.4116689 4279900700
4.6774616 0.31708592 -1.4137435 4279834907
4.6840858 0.28867292 -1.4152254 4283058764
4.6933975 0.26034907 -1.4175965 4279242516
