# .PCD v0.7 - Point Cloud Data file format
VERSION 0.7
FIELDS x y z rgb
SIZE 4 4 4 4
TYPE F F F U
COUNT 1 1 1 1
WIDTH 1106
HEIGHT 1
VIEWPOINT 0 0 0 1 0 0 0
POINTS 1106
DATA ascii
5.7106042 -0.3156648 -0.88350308 4293836966
5.6730862 -0.34851676 -0.87777215 4292063656
5.6491714 -0.38185334 -0.87426996 4292063666
5.6723208 -0.4183988 -0.87840897 4294039237
5.698185 -0.45547879 -0.88302553 4291867539
5.6962671 -0.49051839 -0.88318473 4293508504
5.6862688 -0.52482522 -0.88207036 4293441173
5.6799941 -0.5594151 -0.88159281 4293374351
5.7059102 -0.59734213 -0.88636857 4292255357
5.6913443 -0.63114399 -0.88461745 4288773736
5.6795206 -0.66513431 -0.88334388 4284237885
5.5597138 -0.68570286 -0.86455923 4280818199
4.7251639 -0.61217254 -0.72956443 4282594351
4.6919708 -0.63716626 -0.72478867 4283317044
4.6537628 -0.66108114 -0.71921694 4283185201
4.6212993 -0.68542093 -0.71460038 4281476123
4.5857859 -0.70893455 -0.70950621 4282726190
4.56283 -0.73407799 -0.70648158 4282726190
4.5485029 -0.76043248 -0.70488966 4282988592
4.5379152 -0.78731424 -0.70393449 4283382837
4.5359139 -0.81566793 -0.7044121 4283121197
4.6938772 -0.87385362 -0.73115635 4284041278
5.6278033 -1.0835708 -0.88541341 4282460947
5.6220174 -1.1182747 -0.88557261 4292126600
5.6227865 -1.1543386 -0.88684613 4291665273
5.6175299 -1.1892266 -0.88716453 4292520847
5.6139851 -1.2245146 -0.88780129 4281667334
5.0775437 -1.140151 -0.80040485 4293840324
5.5946879 -1.2924256 -0.88716453 4291469456
5.5751262 -1.3239915 -0.8852542 4290548097
5.5947113 -1.3649628 -0.88987076 4291862674
5.5613322 -1.3930269 -0.88573176 4289564535
5.5498114 -1.4263871 -0.8852542 4287001193
5.5342722 -1.4586514 -0.88413984 4289966247
3.6481571 1.08251 -0.62112457 4285492327
3.6481073 1.0581815 -0.6199283 4283057471
4.0905509 1.1595 -0.6985411 4285888625
4.1184769 1.1401681 -0.70230085 4279504913
4.1158843 1.112303 -0.70059186 4287269003
4.1293006 1.0887878 -0.70178813 4285297012
4.5889964 1.0904124 -0.77920467 4281611819
4.7059922 1.087779 -0.79885787 4282266664
5.0413318 1.1328353 -0.85730481 4281344535
5.0462627 1.1014603 -0.85696298 4284699208
5.0712395 1.0743604 -0.86021006 4281869090
5.5940571 1.1494232 -0.95164013 4285748052
5.6232285 1.1195064 -0.95557082 4284234296
5.62709 1.0844219 -0.9550581 4285220930
5.6132979 1.0460794 -0.95146924 4287194973
5.6205802 1.0117921 -0.95164013 4287326811
5.618917 0.97593528 -0.95027298 4287918178
5.6111956 0.93915999 -0.94788039 4288773738
5.6110158 0.9037714 -0.94685501 4289627503
5.6086664 0.86811864 -0.94548786 4289891966
5.6012177 0.83180398 -0.94326621 4280289027
5.6062164 0.79741991 -0.94326621 4290621356
3.5412984 0.48112428 -0.58096367 4284108101
5.6077633 0.72754723 -0.941899 4284891449
5.6111441 0.69300389 -0.94172812 4294103498
5.6211619 0.65925133 -0.94275349 4280814088
5.6104126 0.62311369 -0.94019002 4282593064
5.6121702 0.58847117 -0.93984824 4281935391
5.6117535 0.55363679 -0.93916464 4284698185
5.5973854 0.51755673 -0.9360885 4294302419
5.604382 0.48354161 -0.93677211 4293511861
5.6092076 0.44930241 -0.93711388 4294431164
5.5882773 0.41312817 -0.93301237 4287784270
5.6142988 0.38043499 -0.93711388 4286731332
5.6066933 0.34537131 -0.9354049 4285152049
5.5998535 0.31047001 -0.9338668 4283968804
5.5908279 0.27556834 -0.93198693 4283772968
5.5835547 0.24087441 -0.93044889 4284169522
1.8453872 0.067485586 -0.2813805 4288577139
1.8309945 0.055702396 -0.27881706 4280356098
1.8431215 0.044761121 -0.28086782 4281606169
1.78918 0.032433532 -0.27146846 4281803548
1.7312181 0.020719785 -0.26138553 4285421393
1.7076662 0.0099429768 -0.25728399 4282724395
1.7106509 -0.00053415733 -0.25779667 4281212700
1.6987922 -0.010962342 -0.25574592 4281082914
1.6927817 -0.021315373 -0.25472051 4281410855
1.6837529 -0.03154175 -0.25318244 4281739050
1.6805726 -0.041801028 -0.25266975 4281476646
1.6812694 -0.052141897 -0.25284064 4281476131
5.5895381 -0.23931941 -0.93147427 4285485903
5.5653296 -0.27250808 -0.92754364 4286273871
5.5753589 -0.30729941 -0.9295944 4287853414
5.5861535 -0.34228408 -0.93181604 4283578411
5.5790329 -0.37622324 -0.93096155 4284957241
5.5864458 -0.41116962 -0.93267053 4281405189
5.6014972 -0.44684628 -0.93574667 4284234799
5.5947227 -0.48087132 -0.93506312 4286273353
5.5936294 -0.5153712 -0.9354049 4286403395
5.5844779 -0.54910612 -0.93437952 4281141504
5.5692444 -0.58213478 -0.93232876 4281996810
4.9877648 -0.55243593 -0.83149928 4284036139
4.8776097 -0.57057726 -0.81287146 4284695099
4.8427229 -0.59664702 -0.80740273 4294962922
4.8096561 -0.62256283 -0.80227584 4282397225
4.7002969 -0.63778079 -0.7838189 4283187250
4.6758089 -0.66370654 -0.78023005 4283712567
4.633636 -0.68676007 -0.77356505 4284040760
4.6088858 -0.71202457 -0.7699762 4283711541
4.5888643 -0.73779219 -0.76724184 4283382578
4.5638423 -0.76253045 -0.76365304 4283250994
4.6105323 -0.79942787 -0.77271056 4282393886
4.5919633 -0.825266 -0.77031803 4281738015
4.6710911 -0.86908513 -0.78518611 4285028951
5.6187434 -1.0808694 -0.95352 4280884509
5.6583943 -1.1245345 -0.96172309 4281803554
5.64077 -1.1570569 -0.95984322 4282064416
5.6277804 -1.190424 -0.95881784 4281341465
5.6165185 -1.2240945 -0.95813423 4281277725
5.5925579 -1.2548699 -0.95522898 4280555544
5.0192614 -1.1587472 -0.85457045 4281869350
5.5527701 -1.3177222 -0.95095658 4293645006
5.501502 -1.3412753 -0.94326621 4293639077
5.431994 -1.3597074 -0.93232876 4291597950
5.435955 -1.3961957 -0.9345504 4291402115
5.4101348 -1.4250101 -0.93147427 4290483844
5.3889227 -1.4548433 -0.92925262 4288907640
4.0949569 -1.1328048 -0.69802839 4292664013
4.0471625 -1.1463745 -0.69067985 4287202681
4.0693908 -1.179682 -0.69597763 4283119404
4.0157847 -1.1909152 -0.68760365 4285946708
4.0602651 -1.2312448 -0.69700301 4279108352
4.053575 -1.2564265 -0.69717395 4284046936
4.0448503 -1.2809777 -0.69700301 4287995798
3.5147159 1.0669997 -0.64496332 4286147686
3.5381613 1.0504483 -0.64825904 4286215021
4.1249032 1.169697 -0.75939679 4284440153
4.1206326 1.1412175 -0.75719965 4282069549
4.1275578 1.1159122 -0.75719965 4283978576
4.1476359 1.0940742 -0.75976294 4284178775
4.1466537 1.0666456 -0.75829822 4284968551
4.5548244 1.1121916 -0.83409894 4288518552
5.3678651 1.2758 -0.98844677 4286476389
5.2395782 1.2114029 -0.96244746 4281540634
5.0617905 1.1376387 -0.92711043 4282067241
5.0898056 1.1111702 -0.93113852 4284766030
5.0994134 1.0805299 -0.93168777 4279830784
5.5566263 1.1417954 -1.0173756 4281407507
5.5789547 1.1107495 -1.020305 4280751120
5.5827684 1.0759388 -1.0197558 4280488207
5.610528 1.0456245 -1.0237839 4280357137
5.646832 1.0165768 -1.0294597 4280423960
5.6703987 0.98493659 -1.0327555 4279964949
5.7034841 0.95466757 -1.0378821 4280294694
5.723794 0.92199796 -1.0406284 4280164397
5.7108841 0.88400394 -1.0371497 4279966501
5.7162008 0.84894598 -1.0371497 4288257185
5.6901565 0.80942762 -1.0312907 4279836714
5.7076797 0.77621961 -1.0336709 4280493110
5.7074604 0.74055117 -1.0327555 4280822588
5.7109213 0.70539653 -1.0325724 4280428347
5.6995192 0.66851032 -1.0296428 4280361786
5.70156 0.63330919 -1.0292767 4280097836
5.7004495 0.59780085 -1.0283612 4286280827
5.7079234 0.56319815 -1.0290936 4280558387
5.7073565 0.52780259 -1.0283612 4280493623
5.7144051 0.49311075 -1.0290936 4280886590
5.6908646 0.45592058 -1.02415 4280622881
5.6837506 0.42026922 -1.0223191 4285421886
5.6979923 0.38618341 -1.0245162 4282525460
5.6894617 0.35054961 -1.0225022 4280223744
1.88784 0.10495222 -0.31301484 4288844411
1.8805933 0.092979901 -0.31155008 4286207552
1.8781817 0.08131209 -0.31100082 4281143296
1.8560497 0.068951532 -0.30678967 4280880896
1.8407156 0.057077512 -0.30386016 4283247378
1.8577387 0.046193987 -0.30697274 4285155115
1.805892 0.033829503 -0.29726881 4290552195
1.767728 0.022273436 -0.29012814 4284696629
1.7452205 0.011285237 -0.28591701 4282461476
1.7364091 0.00057558785 -0.28426915 4281607204
1.7294984 -0.010037355 -0.28298751 4281148455
1.7117097 -0.020433944 -0.27969182 4281411368
1.7105693 -0.030918425 -0.27950874 4281804583
1.7093645 -0.041389678 -0.27932563 4281476646
1.7012173 -0.051636972 -0.27786088 4281411114
5.7009292 -0.2440044 -1.0236008 4280361784
5.6747766 -0.27777678 -1.0190234 4283913830
5.6484261 -0.31123742 -1.0144461 4285821306
5.6817346 -0.34805605 -1.0210375 4283911248
5.6539898 -0.38119084 -1.0162771 4291477695
5.6515436 -0.41587588 -1.0162771 4285821557
5.6714258 -0.45234457 -1.0204881 4286151295
5.6685433 -0.4871352 -1.0204881 4286677638
5.6693635 -0.52226859 -1.0212206 4286017907
5.6768146 -0.5581041 -1.0232346 4284701277
5.6742606 -0.59302813 -1.0234177 4285886321
5.6812634 -0.62902433 -1.0254318 4285756026
5.6763206 -0.66375786 -1.0252486 4281086789
5.680922 -0.69965672 -1.0268965 4281612102
4.7600608 -0.61585462 -0.85478848 4280816659
4.7454762 -0.64359599 -0.85277444 4287458145
4.697638 -0.66648376 -0.84453529 4281143306
4.7070746 -0.69731343 -0.84709859 4280487948
4.7027073 -0.72618228 -0.84709859 4280160269
4.6787505 -0.75190258 -0.84343672 4280621849
4.6410804 -0.77508801 -0.83721155 4280490777
4.6217079 -0.80103117 -0.83446515 4280228123
4.5992889 -0.82624394 -0.83116943 4279833627
4.5525727 -0.84671599 -0.82329643 4283056970
4.5279846 -0.87091875 -0.81963456 4284108881
4.5177341 -0.89772713 -0.81871909 4284635476
4.4822865 -0.91930485 -0.81304318 4282727990
5.6711192 -1.199544 -1.0404453 4285622367
5.5474272 -1.208981 -1.0182911 4283647288
5.5044131 -1.2350308 -1.0115166 4288712063
5.4766159 -1.2641373 -1.0076716 4290029722
5.397974 -1.2809159 -0.99412268 4288712070
5.3002329 -1.2921193 -0.97691184 4282458137
5.0747705 -1.2701774 -0.93516654 4292526257
5.0468855 -1.2961547 -0.93132156 4287000926
5.0150709 -1.3208361 -0.92674422 4286343514
5.004025 -1.3508143 -0.92619497 4286211936
4.0888724 -1.1306626 -0.75097448 4285882971
4.0525355 -1.1474248 -0.74529856 4285423963
4.0161476 -1.1637843 -0.73962265 4285751637
4.0249538 -1.1931564 -0.74273527 4279635206
4.0871763 -1.238941 -0.75628418 4286088061
3.4306481 1.0883107 -0.67464662 4292135373
3.4016676 1.0561759 -0.66725272 4283910987
3.4728367 1.0549773 -0.68067849 4291214782
4.1175208 1.1960506 -0.81123948 4283784023
4.1309433 1.1451699 -0.81104493 4281281320
4.1530404 1.1239053 -0.81415814 4284834146
4.156065 1.0973988 -0.81337988 4285625202
4.1722183 1.0743256 -0.81532562 4287335816
4.464128 1.1204114 -0.87369865 4284832855
5.303638 1.2967979 -1.0437587 4282922029
5.1588264 1.2278582 -1.0126264 4282921508
5.2923965 1.2254152 -1.0383105 4282000925
5.0692034 1.1409583 -0.99141765 4282395430
5.1863022 1.1339514 -1.0137939 4284302912
5.4167194 1.1496031 -1.0591303 4281868058
5.4265537 1.1169389 -1.0597141 4282327582
5.4371524 1.0843894 -1.0604924 4282983968
5.4533339 1.0528687 -1.0624381 4283051562
5.4895816 1.0249753 -1.06847 4282858036
5.6502113 1.0191631 -1.0996022 4280427050
5.6766515 0.98801106 -1.1036884 4280165687
5.6961493 0.95543569 -1.1064124 4279706692
5.7164292 0.92281455 -1.1093311 4279839820
5.7113228 0.88606548 -1.1071907 4284507261
5.7118006 0.8502816 -1.1062179 4279903040
5.7169104 0.81521869 -1.1062179 4279972433
5.7179174 0.77959424 -1.1054395 4279775568
5.7167573 0.7437346 -1.1042721 4279972687
5.7182927 0.70828092 -1.1036884 4279907154
5.7166862 0.67249197 -1.1025209 4279906122
5.720705 0.63740242 -1.1025209 4286021003
5.7215819 0.60198033 -1.1019372 4280365377
5.7193108 0.56628096 -1.1007698 4280039250
5.7138882 0.53035957 -1.0990186 4279775567
5.7316928 0.49656275 -1.1019372 4278193956
5.7101893 0.45941281 -1.0970727 4286614156
5.6972494 0.42320126 -1.0939596 4286741616
5.698761 0.38816878 -1.093765 4281803548
5.6971192 0.35295111 -1.0929867 4283118125
1.8140849 0.10041589 -0.32110068 4292191379
1.8225045 0.089673653 -0.32265729 4286206788
1.8210604 0.078403644 -0.32226816 4283642664
1.8126855 0.066897064 -0.32051694 4284105785
1.7885516 0.055003516 -0.31565255 4284764482
1.7633606 0.043383904 -0.31059355 4283644202
1.7714392 0.032713398 -0.31215015 4282591001
1.7421826 0.02146114 -0.30631286 4283314726
1.7305111 0.010690209 -0.30397794 4282394660
1.7177926 6.2611885e-05 -0.30144843 4281344032
1.70599 -0.010413816 -0.29911351 4281148455
1.6970668 -0.020779401 -0.29736233 4281345572
1.6910229 -0.031087924 -0.29619485 4281673247
1.6947228 -0.041556723 -0.29697317 4281476899
1.6856118 -0.051690117 -0.29522198 4281279528
5.710743 -0.24249195 -1.0945432 4280429111
5.6905322 -0.2766268 -1.0908463 4279638566
5.6446533 -0.30913344 -1.0820904 4285361268
5.660274 -0.34483257 -1.0855927 4285557358
5.6570725 -0.37949139 -1.0853982 4285097064
5.6634421 -0.41483852 -1.0871494 4285624178
5.682303 -0.45128492 -1.0914301 4286216828
5.6794267 -0.4861424 -1.0914301 4286151035
5.6763363 -0.52098155 -1.0914301 4286348414
5.6769381 -0.55618286 -1.0922084 4286347899
5.6812234 -0.59181684 -1.093765 4286282871
5.6833353 -0.62730956 -1.0949324 4287401876
5.679379 -0.66216999 -1.0949324 4281613646
5.6985755 -0.69987047 -1.0996022 4280891202
4.7310562 -0.6107347 -0.90697128 4286082160
4.7068062 -0.6369949 -0.90288514 4283117872
4.66396 -0.6603725 -0.89510208 4281343518
4.663702 -0.68955046 -0.8958804 4280557866
5.6947842 -0.87747657 -1.1036884 4281940291
5.666048 -0.90867949 -1.0990186 4280425504
4.6821494 -0.78059238 -0.90230143 4279964179
4.5796485 -0.79243988 -0.88264918 4286544251
4.4868369 -0.80478895 -0.86494267 4285359458
4.476028 -0.83123142 -0.86377525 4282201897
4.4968529 -0.86366868 -0.86902881 4283254072
4.4876204 -0.89048189 -0.86825049 4281345824
4.4695797 -0.91544527 -0.86572099 4281083167
4.4437227 -0.9386012 -0.86163491 4281346339
4.4206271 -0.96209949 -0.85813248 4282069547
4.4002824 -0.98599243 -0.85521388 4281871655
4.3884144 -1.0116528 -0.8540464 4280031245
4.3582616 -1.0329118 -0.84918195 4279108864
4.314671 -1.0505936 -0.8415935 4288908941
4.3233695 -1.0808506 -0.84470671 4292396479
4.3176069 -1.1076015 -0.84490126 4290621607
5.2318921 -1.3761545 -1.0338353 4292329910
5.1864119 -1.3982809 -1.0262468 4293710278
5.1739521 -1.429034 -1.0254685 4281273856
4.1078906 -1.1620148 -0.80754256 4285614910
4.0987992 -1.1866535 -0.8071534 4283973684
4.0857973 -1.210111 -0.80598593 4280163858
3.3031065 1.0695686 -0.69277644 4290623152
3.314271 1.0507591 -0.69380832 4282135342
4.1519222 1.2049282 -0.87232268 4284966757
4.111227 1.1658202 -0.86179757 4287203713
4.1324477 1.1444885 -0.8648932 4285426019
4.1620626 1.1252373 -0.86984617 4287333249
4.1717272 1.1004267 -0.87046528 4286148461
4.1698718 1.0726157 -0.86860794 4286016098
4.184917 1.0491505 -0.87046528 4284699211
5.2055283 1.271023 -1.0906674 4281672733
5.2398844 1.2453917 -1.0964459 4283119919
5.2588673 1.2158612 -1.0989224 4282198817
5.0896139 1.14389 -1.060743 4283842611
5.2686119 1.150192 -1.0978905 4283840557
5.2860999 1.1200731 -1.1001606 4283905573
5.3149176 1.0921454 -1.1049073 4284234286
5.3445506 1.0640972 -1.1098603 4283775028
5.4509029 1.0505341 -1.1313232 4281674035
5.5678673 1.0376768 -1.1550564 4280296770
5.5924263 1.0067862 -1.1589775 4279905093
5.6158519 0.97546571 -1.1626923 4279512134
5.639102 0.94389552 -1.166407 4280431692
5.6505842 0.91021013 -1.1676452 4291481319
5.686039 0.88015974 -1.1740429 4280295741
5.684557 0.84424853 -1.1725982 4280563025
5.7448483 0.81720382 -1.1843616 4279972693
5.739089 0.78048897 -1.1820915 4279906904
5.7398887 0.74475652 -1.181266 4279643732
5.7394943 0.70892388 -1.1802341 4280366942
5.7408214 0.67335188 -1.179615 4282535524
5.7477622 0.63843805 -1.1802341 4279969849
5.7447591 0.60244453 -1.1787895 4279907667
5.7415314 0.56651187 -1.1773449 4279841622
5.7390532 0.53073162 -1.1761067 4279840333
5.7373276 0.49508721 -1.1750748 4278520870
5.7158737 0.45792246 -1.1699154 4287462540
5.7078414 0.42204893 -1.1676452 4282127129
5.6839652 0.3852337 -1.1620731 4283050023
1.8451558 0.11394859 -0.35040036 4283905575
1.8594979 0.10338238 -0.3532896 4282262300
1.8473927 0.091345221 -0.35060671 4282328093
1.8342324 0.079418428 -0.34771746 4282985251
1.8249071 0.067801088 -0.34565371 4284169008
1.8243107 0.05657227 -0.34544736 4283774500
1.8422307 0.045811597 -0.3491621 4283839778
1.8336723 0.034343965 -0.34730473 4284102950
1.7555767 0.022122987 -0.33079472 4283183398
1.7204551 0.011130575 -0.32336521 4282790700
1.7165771 0.00057342451 -0.32253972 4281409825
1.7106775 -0.0099239238 -0.32130149 4281475878
1.7027572 -0.020325052 -0.31965047 4281411108
1.6937957 -0.030611457 -0.3177931 4281607969
1.6955324 -0.041051626 -0.31820586 4281280544
1.6952486 -0.051454447 -0.31820586 4281148193
1.6929452 -0.061783511 -0.3177931 4281081888
5.7328529 -0.24537289 -1.1707408 4281018920
5.7136474 -0.2796821 -1.1670262 4281282092
5.6815372 -0.31306422 -1.1606286 4285887602
5.6980658 -0.34905756 -1.1645496 4284242523
5.6216216 -0.37900639 -1.1488651 4286281592
5.6230931 -0.41378033 -1.1496906 4286149752
5.6965275 -0.45434833 -1.1657879 4286216828
5.6955819 -0.48946071 -1.1662006 4285823097
5.6924715 -0.52439892 -1.1662006 4285888890
5.6901207 -0.55941319 -1.166407 4285690993
5.6895003 -0.59462196 -1.1670262 4287203459
5.6828275 -0.6291976 -1.166407 4288716962
5.6691413 -0.66291785 -1.1643432 4280888379
5.7183785 -0.70427239 -1.1756939 4280495682
5.7168612 -0.73972327 -1.176313 4280431431
5.7199707 -0.77584004 -1.177964 4280759105
5.7218847 -0.81188518 -1.1794087 4285360753
4.7169561 -0.69877809 -0.96622324 4283650137
5.7143912 -0.88248861 -1.1800277 4287661192
5.7185292 -0.91908813 -1.1820915 4288844170
4.8229666 -0.80547941 -0.99181378 4281738262
4.777442 -0.82803595 -0.98314607 4282922276
4.7713079 -0.85716122 -0.98293972 4283251503
4.7351761 -0.88069338 -0.97633564 4281674025
5.6549768 -1.0877841 -1.1750748 4281281840
4.7671981 -0.94732034 -0.98562253 4282529334
4.7881336 -0.98206025 -0.99140108 4283054132
4.8193517 -1.0193205 -0.99944961 4282068260
4.9650135 -1.0820109 -1.0322633 4282068517
4.9659185 -1.1141696 -1.0339143 4282003494
4.9046459 -1.1320713 -1.0221509 4281938727
4.3454356 -1.0310757 -0.90245342 4280753428
4.3152618 -1.051924 -0.89729404 4280621588
4.2849965 -1.072441 -0.89213467 4281869858
4.280231 -1.0992 -0.89254743 4281803295
4.2459664 -1.1182132 -0.88656253 4282196505
4.2069073 -1.1355722 -0.87954581 4286208587
4.1809993 -1.1561466 -0.87541831 4284170287
4.1681781 -1.1801791 -0.87418008 4283512363
4.1561589 -1.2043703 -0.8731482 4282330150
5.0370679 -1.4932884 -1.0685853 4286154103
3.2122233 1.0612659 -0.71586883 4288582276
3.227031 1.0442432 -0.71783054 4283780167
4.1110959 1.1653298 -0.9146601 4284046166
4.1247525 1.1419072 -0.91618592 4283254853
4.1552339 1.1229485 -0.92163521 4284372564
4.1686506 1.099175 -0.92316103 4286348664
4.1989455 1.0796583 -0.92861038 4282070052
5.1416969 1.2887501 -1.1441855 4281147415
5.1542482 1.2583354 -1.1452755 4286938744
5.1685181 1.2282667 -1.1468012 4283911491
5.09799 1.1784881 -1.1289275 4282331432
5.1146464 1.1493272 -1.1311072 4284104240
5.1502056 1.1241728 -1.1376463 4284496940
5.1684628 1.0949804 -1.140262 4284102449
5.2075868 1.0699319 -1.1476731 4282461748
5.3968658 1.0743927 -1.1893059 4281347644
5.4608541 1.0523506 -1.2023844 4280496195
5.4787207 1.0209715 -1.205 4280037448
5.5050521 0.99097073 -1.2095774 4280038991
5.5417976 0.96252435 -1.2165526 4280235087
5.5774379 0.93350285 -1.2233098 4286086804
5.5984774 0.90174913 -1.2267973 4281612369
5.6376595 0.87261236 -1.2344264 4280299868
5.660284 0.84058791 -1.2383499 4279315280
5.6798286 0.80790585 -1.2416195 4280104283
5.6991844 0.77501541 -1.244889 4280038490
5.719317 0.74204355 -1.2483766 4279381590
5.73248 0.70801497 -1.2503383 4281944670
5.7415624 0.67339718 -1.2514282 4283389545
5.7504363 0.63869458 -1.2525181 4280234578
5.7639532 0.6044184 -1.2546978 4279579226
5.7782369 0.57009625 -1.2570956 4279775314
5.7563591 0.53228939 -1.2514282 4279840329
5.7556281 0.49662262 -1.2505563 4278918451
5.7303548 0.45903173 -1.2442352 4280822580
5.7087317 0.42205834 -1.2387857 4287130998
1.8514346 0.12467148 -0.3747412 4284368175
5.7212734 0.35245332 -1.2405295 4280819757
5.7116351 0.31669086 -1.237914 4285756285
1.8534156 0.090571508 -0.3747412 4283708720
1.8597866 0.079451062 -0.37604904 4283444519
1.8602393 0.068038121 -0.37604904 4283971629
1.8567196 0.056501433 -0.37517715 4283249181
1.8297132 0.044426989 -0.3690739 4285946688
1.818242 0.032979332 -0.36645824 4285815102
1.7061843 0.020403273 -0.34139135 4285880651
1.7013977 0.0099021876 -0.34030148 4281540123
1.7258252 -0.00052852946 -0.34575081 4281409311
1.6994393 -0.010966072 -0.33986554 4281344546
1.7110505 -0.021532804 -0.34248123 4281411366
1.7050314 -0.031925593 -0.34117338 4281279779
1.7145602 -0.04262276 -0.34335312 4281213986
1.7103643 -0.053023998 -0.34248123 4280950814
1.7236609 -0.064015448 -0.34553283 4280688674
5.7502756 -0.24616782 -1.2457609 4280358939
5.6901693 -0.27859464 -1.2326826 4281149223
5.7000465 -0.31414571 -1.2352983 4284834914
5.6989861 -0.34917411 -1.2355162 4284703328
5.6431794 -0.38053548 -1.2235277 4286084211
5.6426849 -0.41529712 -1.2239636 4286610044
5.6575422 -0.45130545 -1.2278872 4285887348
5.6984239 -0.48976278 -1.2376959 4285756275
5.6953115 -0.52471846 -1.2376959 4285690482
5.6919851 -0.5596543 -1.2376959 4285887609
5.6894145 -0.59467036 -1.237914 4285887350
5.6875987 -0.62978327 -1.2383499 4287335833
5.7059226 -0.66727257 -1.2433633 4279311661
5.7191567 -0.70441484 -1.2472868 4279839294
5.7244058 -0.74074411 -1.2494664 4280693320
5.7207203 -0.77598548 -1.2496845 4289311405
4.7379532 -0.67251182 -1.0290959 4290559415
4.7202206 -0.69957095 -1.0260442 4282926667
5.7257228 -0.88427782 -1.2542619 4282860893
5.6989903 -0.91599065 -1.2494664 4286607736
4.7902946 -0.80030763 -1.0450079 4281540883
4.7727933 -0.82752079 -1.0421742 4283249963
4.7714677 -0.85748005 -1.0430461 4282725418
4.7910647 -0.8913765 -1.0487134 4281282603
5.5848279 -1.0743525 -1.2305028 4280038203
5.5608997 -1.1051792 -1.2265793 4280169021
5.5281992 -1.1339899 -1.2206941 4280759357
5.4829426 -1.1598177 -1.2119751 4280164381
4.764328 -1.038545 -1.0493673 4281740584
4.7492952 -1.0658374 -1.0474056 4282726968
4.7236462 -1.090572 -1.0430461 4283253057
5.327477 -1.2643067 -1.1832027 4284571993
5.2892756 -1.2895807 -1.1762276 4292465092
5.0597138 -1.2666028 -1.125222 4285219138
4.9261184 -1.2653601 -1.0962316 4286074707
4.7729135 -1.2573106 -1.0626637 4281801498
4.7575707 -1.2845397 -1.0609199 4281343255
4.7458367 -1.3126675 -1.060048 4281606427
4.1610942 -1.178612 -0.92621267 4281540121
4.8296766 -1.3998553 -1.0833712 4283448373
4.814446 -1.4275227 -1.0818453 4289170563
4.9541078 -1.502027 -1.116503 4287265903
4.9401374 -1.5309533 -1.1154132 4287729538
3.1256902 1.0760978 -0.73971027 4292992474
3.1303899 1.0562764 -0.7392512 4283316783
3.1479018 1.0407138 -0.74200565 4285096286
4.0758324 1.1828536 -0.96098691 4282072128
4.0689673 1.1538407 -0.95754385 4282793278
4.064714 1.125736 -0.9547894 4280424984
4.1232228 1.1147406 -0.96741408 4283583815
4.1723361 1.1005874 -0.97774345 4284965981
4.1846662 1.0764198 -0.97912067 4282790192
5.0059547 1.2549049 -1.1772137 4282197285
4.9927588 1.2190877 -1.1721638 4282329900
4.999198 1.1882048 -1.1719342 4282198315
4.9997563 1.1559738 -1.1703275 4280817688
5.0048556 1.1248473 -1.1698685 4282396456
5.0401912 1.1003425 -1.1767546 4282198825
5.1887212 1.099447 -1.2109561 4280360487
5.3011966 1.089327 -1.2364351 4280430402
5.3469186 1.0645683 -1.2458463 4280498259
5.3762875 1.0361592 -1.2513552 4280499542
5.4141192 1.0090339 -1.25893 4280171090
5.4537358 0.98182791 -1.266964 4281814121
5.4807544 0.95200896 -1.2720138 4289378250
5.5124121 0.92269832 -1.2782114 4280034101
5.5371876 0.89195186 -1.2828022 4280433497
5.5733356 0.86272186 -1.2901474 4279713124
5.596817 0.83122373 -1.2945087 4280301912
5.6191564 0.79933274 -1.2986405 4280104542
5.6442084 0.76759219 -1.3034608 4279842138
5.6700468 0.73569936 -1.3085107 4279774276
5.6899095 0.70280266 -1.3121834 4286417552
5.7095819 0.66968989 -1.315856 4280564305
5.7222896 0.6356104 -1.3179219 4279776081
5.7764177 0.60576236 -1.3298579 4279644245
5.7955236 0.57183564 -1.3335305 4279643728
5.787293 0.53518951 -1.3307761 4279840847
5.7894983 0.49958563 -1.3305465 4281612094
5.7604384 0.46148971 -1.3229717 4284630848
5.7126875 0.42240694 -1.3110356 4281804583
1.8609717 0.12638864 -0.3999908 4289171339
1.8646265 0.11514692 -0.40067941 4284238149
1.8652979 0.10370363 -0.40067941 4283845447
1.8649271 0.092208557 -0.40044987 4284174671
1.8615681 0.080596253 -0.39953172 4282661435
1.8542465 0.068884924 -0.39769539 4281672998
1.8449059 0.057206567 -0.39539999 4282196254
1.8296542 0.045501485 -0.39172736 4285813829
1.816275 0.034021784 -0.3885138 4286799946
1.770708 0.022310337 -0.37772542 4286143038
1.7085216 0.011056049 -0.36303484 4281867278
1.7114773 0.00057286822 -0.36372346 4281344284
1.7075554 -0.0099051064 -0.36280531 4281213478
1.7249806 -0.020595361 -0.36693701 4281147942
1.7189828 -0.031072401 -0.36555979 4281410339
1.7245979 -0.041761976 -0.36693701 4281279267
1.7184721 -0.052164625 -0.36555979 4281016608
1.7356273 -0.063350923 -0.36969149 4280886051
5.5606518 -0.23799086 -1.2727025 4280754469
5.7739277 -0.28263688 -1.3234308 4280491297
5.6875362 -0.31339517 -1.3034608 4280162330
5.6884208 -0.34846607 -1.3041494 4286150520
5.6939445 -0.38388729 -1.3059857 4283782996
5.6448894 -0.41538575 -1.2949678 4282137401
5.6344728 -0.4493947 -1.2931315 4284900453
5.7023988 -0.49004701 -1.3098879 4285755764
5.6915312 -0.5243122 -1.3080516 4285426801
5.6949873 -0.559892 -1.3096584 4285756016
5.6914444 -0.59482521 -1.3096584 4285294182
5.6905894 -0.63005757 -1.310347 4285756275
5.7291517 -0.66993928 -1.3204467 4280232243
5.760675 -0.70948446 -1.3289398 4279772986
5.7562132 -0.74481797 -1.3289398 4279182393
5.7515345 -0.78012335 -1.3289398 4282204492
4.7386742 -0.67230928 -1.0888407 4283190350
5.6933889 -0.84350944 -1.3174628 4280364094
5.6698303 -0.87560385 -1.3131015 4281089107
5.6528201 -0.90852273 -1.310347 4280689962
4.829227 -0.80652553 -1.1147788 4281671182
4.7954178 -0.83115315 -1.1078926 4283054124
4.801723 -0.86262769 -1.1106471 4282791728
4.8269596 -0.89777178 -1.1179924 4281151796
5.5209794 -1.0619991 -1.2860157 4280891720
5.5009947 -1.0931983 -1.2828022 4281219403
5.4407911 -1.1159759 -1.2699479 4278850332
5.4186058 -1.1461153 -1.2662753 4282863962
5.312571 -1.1577809 -1.2424031 4282140505
5.3300586 -1.1958982 -1.2483711 4280496444
5.3093433 -1.2255147 -1.2451576 4294179583
5.2676325 -1.2499769 -1.2368941 4287071106
4.7482996 -1.1575248 -1.112713 4282925109
4.7562146 -1.1904203 -1.1163856 4283249961
4.8016114 -1.2331433 -1.1292398 4283512106
4.8588963 -1.2796915 -1.1450781 4292983736
4.8509526 -1.309481 -1.1450781 4282392611
4.8371978 -1.3376644 -1.1437008 4280487696
4.8251534 -1.3662586 -1.1427827 4279961865
4.837245 -1.4018011 -1.1478326 4290291615
4.849082 -1.437543 -1.1528825 4288710782
4.8420334 -1.4678344 -1.1533415 4287788140
4.8227091 -1.4943472 -1.1508166 4284038457
4.8719058 -1.5424229 -1.1652776 4285224529
4.5937915 -1.4854238 -1.098711 4291739313
4.572576 -1.5096152 -1.095727 4287657575
4.5521593 -1.533913 -1.0929725 4285024816
4.5371394 -1.5599166 -1.0915953 4288643684
4.5449324 -1.5938478 -1.0959566 4288382050
4.5937195 -1.6426839 -1.1106471 4293975227
4.5314322 -1.6518348 -1.0975633 4294240967
4.5166492 -1.6779132 -1.0964156 4294965187
4.4971666 -1.702149 -1.0941201 4287790665
4.4893622 -1.7307616 -1.0948088 4287199809
4.4831877 -1.760054 -1.0959566 4286545753
3.0528922 1.0712909 -0.76238894 4294966780
3.0750084 1.057912 -0.76648146 4282725412
3.122824 1.0529944 -0.7773146 4280226314
3.109875 1.0274125 -0.77225912 4284309340
4.0201249 1.2198986 -1.0019215 4278849548
4.0591679 1.2046059 -1.0101066 4285954163
3.9956448 1.1591053 -0.99181068 4283123524
4.0587058 1.1504638 -1.0062548 4284766811
4.846694 1.3419836 -1.2072695 4284242258
4.8604579 1.3137404 -1.208714 4285094734
4.8721809 1.2848833 -1.209677 4284895550
4.1947508 1.0785784 -1.0341802 4284238647
4.8631053 1.2188566 -1.2034178 4284433198
4.8874636 1.1931415 -1.207751 4284629294
4.8984694 1.1640285 -1.208714 4284366635
4.8970094 1.1319808 -1.2065474 4283578661
4.9038625 1.101912 -1.2065474 4282329890
5.1248288 1.1186278 -1.2609538 4281151040
5.1857157 1.0986395 -1.2746757 4280695129
5.2455983 1.0777504 -1.288157 4280762209
5.2740049 1.0499068 -1.2936939 4280696416
5.3175154 1.0246969 -1.3030826 4280697434
5.34374 0.99578828 -1.3081381 4280498253
5.358346 0.96453035 -1.3103048 4287929259
5.3995442 0.9377867 -1.319212 4279706176
5.4396577 0.91041315 -1.3278785 4280499039
5.4786782 0.88242775 -1.3363042 4280697183
5.5060501 0.8522138 -1.3418412 4280565345
5.5274959 0.82084042 -1.3459337 4280433507
5.5564508 0.79033083 -1.3519521 4280040806
5.5765829 0.75831789 -1.3558038 4279841622
5.6100059 0.72783864 -1.3630259 4287138203
5.6278515 0.69507092 -1.3663963 4281023055
5.637794 0.66120547 -1.3678406 4280038999
5.7015529 0.63325518 -1.3827664 4279906902
5.6657543 0.59410101 -1.3728962 4279841874
5.7195191 0.56429106 -1.3854145 4279841109
5.7306061 0.52990264 -1.3873403 4280165949
5.7579236 0.49682117 -1.3933587 4283911242
5.7782779 0.46288043 -1.397692 4282595390
5.8090796 0.4294979 -1.4046733 4279243556
1.8403767 0.12391989 -0.41741383 4286664536
1.84304 0.11274496 -0.41789532 4281408549
5.8092175 0.32212147 -1.4029882 4279376421
5.8072071 0.28627875 -1.4020252 4279506979
5.8156419 0.25093526 -1.4037104 4279638817
1.8462217 0.067516625 -0.41813603 4287662732
1.8320493 0.055735163 -0.414525 4286079838
1.8333272 0.044517048 -0.41476575 4286668877
1.8054236 0.032738596 -0.40778437 4287325001
1.7483302 0.020936141 -0.39358094 4288050516
1.7222204 0.010037679 -0.38708106 4283117597
1.7222495 -0.00052985561 -0.38708106 4281540636
1.7202728 -0.011086179 -0.3865996 4281475621
1.7279365 -0.021733772 -0.38852549 4281673257
1.7335932 -0.032440815 -0.38996992 4281607717
1.7226882 -0.042819276 -0.3873218 4281213987
1.7262737 -0.053506337 -0.38828474 4281016610
1.7521013 -0.065052398 -0.39478463 4281279528
1.7565178 -0.076008439 -0.39598832 4280818979
5.7995486 -0.28392741 -1.4000994 4280756015
5.7734685 -0.31817716 -1.394081 4280887595
5.780127 -0.3541289 -1.3962476 4281019692
5.7797823 -0.38971865 -1.396729 4279902240
5.7230744 -0.421197 -1.3832479 4279771424
5.6536226 -0.45099357 -1.366637 4280560687
5.7813001 -0.49686867 -1.3991364 4280954423
5.7733097 -0.53188848 -1.3979328 4280033324
5.7660737 -0.56692368 -1.3969698 4280099117
5.7653828 -0.60259509 -1.397692 4279835944
5.7654357 -0.63838595 -1.3986549 4280099631
5.7382727 -0.67104906 -1.3928772 4279705901
5.7186337 -0.70435053 -1.3890254 4280166970
5.7055411 -0.73830688 -1.3868588 4280102725
5.6960945 -0.77265018 -1.3856552 4280365644
5.6643391 -0.80377358 -1.3789146 4288193724
5.6381774 -0.8353889 -1.3736184 4280430667
5.6281486 -0.86922866 -1.3724147 4280365895
5.6102514 -0.90174615 -1.3692851 4280164646
4.8473406 -0.80982393 -1.1788627 4281408537
4.7992439 -0.83210039 -1.1680295 4282396970
4.7950029 -0.86170375 -1.1682703 4282331689
4.8029852 -0.89359134 -1.1716406 4281611575
5.4589 -1.0501546 -1.3387116 4281679439
5.401897 -1.0736129 -1.3259525 4278784034
5.381896 -1.1040103 -1.3225822 4281810512
5.2468219 -1.1099221 -1.2900828 4278918192
5.3262143 -1.1608858 -1.3119899 4280960346
5.2962613 -1.1884496 -1.3062122 4280299841
5.251039 -1.2121999 -1.2965827 4294245114
5.2236695 -1.2396947 -1.2915273 4294770685
5.1744714 -1.2616163 -1.2809349 4291877586
5.131794 -1.2846296 -1.2720276 4293325032
4.9480109 -1.2709782 -1.22701 4279505678
4.8866177 -1.2872345 -1.2132879 4282530613
4.7193208 -1.274222 -1.1723628 4280420612
4.7759647 -1.3209932 -1.1889737 4287127900
4.7649679 -1.3494804 -1.1882514 4286934117
4.7482076 -1.3762624 -1.1860847 4289238417
4.6373062 -1.3750441 -1.1596038 4294433239
4.6102042 -1.3978441 -1.1547891 4285745482
4.6998186 -1.4565377 -1.1803071 4281468162
4.728734 -1.4973519 -1.1901773 4282128392
4.6169415 -1.4932103 -1.1634556 4289301101
4.5735888 -1.510259 -1.1545483 4286339890
4.4860501 -1.5119636 -1.1340858 4287393340
4.449151 -1.529999 -1.1268637 4287327798
4.4369316 -1.5563066 -1.1261414 4287328826
4.4474063 -1.5906879 -1.1314377 4288118593
4.4576254 -1.6252561 -1.1367339 4289826131
4.4785056 -1.6640635 -1.1449189 4286274334
4.4645791 -1.690138 -1.1439559 4286668842
4.459559 -1.7195942 -1.1454004 4286801191
4.468801 -1.7547247 -1.1506965 4286475577
4.4615555 -1.7835519 -1.1516595 4286546032
4.0531263 1.4784609 -1.0843112 4294440163
4.0675888 1.4555193 -1.0858246 4285620813
2.9798057 1.045805 -0.78288651 4282525713
3.0172784 1.0382024 -0.7914626 4283512881
3.1336274 1.0567625 -0.82173121 4281213986
3.94736 1.2773451 -1.0411785 4278650890
4.0824285 1.2934213 -1.0759873 4287138187
4.0791969 1.2649095 -1.0729605 4283322186
3.8838189 1.1522971 -1.0157024 4281740331
3.9484386 1.1451508 -1.0313412 4281804332
4.1192517 1.1673212 -1.0757351 4283910473
4.7456026 1.3133543 -1.2432213 4285155650
4.7489009 1.2829496 -1.2419602 4281206528
4.7454548 1.2508279 -1.2389333 4285024315
4.3687797 1.1229519 -1.1355156 4285289277
4.7707729 1.1950855 -1.2417079 4284826928
4.7610936 1.1616627 -1.2371676 4285350707
4.7766056 1.134439 -1.2394377 4284496940
4.8079906 1.1107703 -1.245996 4282526501
5.0026045 1.1234272 -1.2961913 4280821046
5.0065675 1.0920922 -1.2954346 4280959077
5.044415 1.0679635 -1.3037585 4280565345
5.1674657 1.0609199 -1.3347838 4280762976
5.2260776 1.0395725 -1.3486569 4280763494
5.2637153 1.0135218 -1.3569808 4280036681
5.2907648 0.98510045 -1.36253 4282535778
5.2957568 0.95244718 -1.3622777 4281352281
5.3491731 0.92820364 -1.3748897 4280894561
5.380537 0.8996712 -1.3817002 4280764005
5.4107962 0.87063503 -1.3882583 4281091687
5.4428134 0.84155691 -1.395321 4281092455
5.4708471 0.81155068 -1.4013747 4280366416
5.5006332 0.78150421 -1.4079329 4293582821
5.539844 0.75242424 -1.4170135 4291342500
5.554913 0.71978533 -1.4197881 4284767070
5.5736308 0.68746328 -1.4235717 4287467922
5.588316 0.65448862 -1.4263463 4294308076
5.6143475 0.62263876 -1.4321477 4294963947
5.6527095 0.59180301 -1.4412284 4294698976
5.6706796 0.55852926 -1.4450119 4294368726
5.6845989 0.52470171 -1.4477866 4283644204
5.7012091 0.4909732 -1.4513179 4294697424
5.758131 0.46029642 -1.4654433 4294433484
5.7521615 0.42431641 -1.463173 4294895575
1.8657596 0.12638846 -0.44715741 4286740341
1.858773 0.11446379 -0.4451395 4284835175
5.7454705 0.31761917 -1.4596417 4294501579
5.7840385 0.28416154 -1.4692268 4293382588
5.7615037 0.24762881 -1.4629208 4282130201
5.7184324 0.21063676 -1.4513179 4290814875
1.8410981 0.056770414 -0.43984249 4288380528
1.8181947 0.044904154 -0.43378878 4286471233
1.8019885 0.033445358 -0.42950073 4287129416
1.7450718 0.021691058 -0.41461867 4288247646
1.7529132 0.011030084 -0.41663659 4283906604
1.7384329 0.00027515268 -0.412853 4281473813
1.716146 -0.010253659 -0.4070515 4281476132
1.7189536 -0.020819353 -0.40780824 4281804583
1.725566 -0.031491388 -0.40957391 4281739042
1.7330792 -0.042269155 -0.4115918 4281411106
1.7434264 -0.053229541 -0.41436642 4281082143
1.7527373 -0.064282805 -0.4168888 4280951074
1.743609 -0.074661672 -0.41461867 4280557090
5.5820422 -0.27420497 -1.416509 4280026624
5.4092388 -0.29898569 -1.3718628 4280093184
5.3648062 -0.32955688 -1.3607644 4282855716
5.3761992 -0.36338308 -1.3642957 4281341966
5.4143996 -0.39935645 -1.3748897 4280356100
5.5353141 -0.44244871 -1.4071761 4287001444
5.5459924 -0.47756761 -1.4107075 4286936421
5.6884561 -0.52502728 -1.4487954 4284569156
5.6918683 -0.56058538 -1.4505612 4285162323
5.7075696 -0.59751588 -1.4556059 4286214759
5.7105279 -0.63327265 -1.4573716 4280688925
5.6998072 -0.66751158 -1.4556059 4278912522
5.6821589 -0.70081311 -1.4520745 4279704097
5.6633573 -0.73379892 -1.4482911 4280299584
5.6386123 -0.76579869 -1.442994 4280299080
5.6213527 -0.79861188 -1.4397149 4291350248
5.5895457 -0.82911146 -1.4326522 4280099643
5.5767026 -0.86220932 -1.4306344 4280365636
5.5206728 -0.88826054 -1.4172657 4279901729
5.5017571 -0.91988307 -1.4137343 4281277200
4.8333907 -0.83860397 -1.2384288 4282593062
4.8243442 -0.86755997 -1.2374198 4282594604
4.8522258 -0.9033466 -1.2462481 4282267967
5.2076683 -1.0026491 -1.3420987 4280428857
5.3694015 -1.0680091 -1.3867449 4281877068
5.1001835 -1.047013 -1.3168749 4278982692
5.3019309 -1.1223924 -1.3723673 4280891200
5.2505093 -1.1452081 -1.3605121 4279971893
5.2320542 -1.1748581 -1.3574853 4293916915
5.2040048 -1.2021461 -1.351936 4294704624
5.153223 -1.2237668 -1.340333 4293914848
5.0854521 -1.2406805 -1.3241898 4288584594
4.955719 -1.2412868 -1.2913989 4280558887
4.8861551 -1.2557693 -1.2747511 4284245607
4.7585893 -1.2541506 -1.2424647 4284509292
4.916151 -1.3280039 -1.2871108 4280559909
4.6980758 -1.3000603 -1.2303572 4294960846
4.615531 -1.3077531 -1.2101781 4286991915
4.6213598 -1.3400927 -1.2139617 4284689934
4.6223273 -1.3711761 -1.2164841 4289755742
4.625865 -1.4031649 -1.2197632 4286399790
4.613471 -1.4303757 -1.2187542 4283770388
4.6119876 -1.460995 -1.2207721 4284559902
4.618587 -1.4943312 -1.2250602 4288637782
4.6093311 -1.5226423 -1.2250602 4285740077
4.4733658 -1.5082221 -1.1902512 4287124524
4.4503016 -1.530919 -1.1864678 4287060261
4.4344335 -1.5559535 -1.184702 4287061804
4.4156923 -1.5798727 -1.1821797 4287260202
4.4113693 -1.6089271 -1.1836931 4287261493
4.4322519 -1.6474297 -1.1922692 4288578908
4.48631 -1.6989312 -1.2101781 4284828971
4.4748979 -1.7260783 -1.2099259 4285419047
4.5011497 -1.7680111 -1.2202677 4285946411
4.4569736 -1.7822998 -1.2109349 4286740828
4.0627089 1.5398705 -1.1448475 4279506467
4.0124097 1.492696 -1.1274763 4294634996
4.0178685 1.4667239 -1.1264236 4283382060
2.8652444 1.0257196 -0.78979141 4280817922
4.0137215 1.4096297 -1.1201068 4287725150
4.0378008 1.3903192 -1.1245812 4282793010
3.0929465 1.0435065 -0.8500641 4281019680
4.0792875 1.3488488 -1.1316876 4282397485
4.0819807 1.3220084 -1.1301084 4284042058
4.0716243 1.2910997 -1.1248444 4282004534
3.7735956 1.1710701 -1.0374621 4286148723
3.7908635 1.1509799 -1.0403574 4282595388
3.8357694 1.1389681 -1.0511485 4286476397
4.1372871 1.201018 -1.134846 4280818969
4.132514 1.1721839 -1.1314244 4283185718
4.6565166 1.2901508 -1.2777634 4284300592
4.661551 1.2607982 -1.2769737 4284892727
4.559135 1.2030981 -1.2459162 4284301362
4.6402364 1.1941133 -1.266709 4284433708
4.6484118 1.1658536 -1.2669722 4285155373
4.654541 1.1370804 -1.266709 4284102182
4.6895857 1.115202 -1.2746049 4282657582
4.9407058 1.142998 -1.3430369 4280428081
4.9711556 1.1179581 -1.3496169 4279181103
5.0033684 1.0929996 -1.3567232 4286548386
4.9986558 1.0598749 -1.3535649 4282798965
4.9927812 1.0266551 -1.3501432 4279971915
5.0084476 0.99788785 -1.3527752 4290693850
4.9548001 0.95561385 -1.3361937 4280690492
3.2829459 0.61189783 -0.87059367 4285233037
5.2709165 0.94972014 -1.4206808 4281026145
5.306108 0.92248952 -1.4288399 4280630617
5.3230858 0.89182991 -1.4319984 4280762201
5.3646493 0.86499476 -1.4419999 4280828766
5.3936892 0.83575988 -1.4485799 4280435808
5.4235253 0.80634314 -1.4554231 4280960354
5.4455628 0.77550179 -1.4601606 4284310387
5.4731598 0.74520242 -1.4664775 4286212717
5.489109 0.7130996 -1.4696358 4282924104
5.5077424 0.68118489 -1.4735838 4283713630
5.543437 0.6510976 -1.4822694 4281740608
5.5923915 0.62209386 -1.4946399 4280032810
5.6028194 0.58847463 -1.4964823 4281414450
5.586164 0.55208856 -1.490955 4290026391
5.5971308 0.51851559 -1.4930606 4282198055
5.583868 0.48274645 -1.4885862 4283581756
1.8488624 0.14763153 -0.4655295 4284829771
1.8497334 0.13628435 -0.4655295 4286735200
1.86786 0.12611267 -0.47026706 4286414467
5.6190686 0.3471179 -1.4954294 4283907398
5.6124239 0.31214941 -1.4930606 4285946973
5.6257958 0.27828071 -1.496219 4286014306
5.6158314 0.24325283 -1.4930606 4283974474
5.455255 0.20273623 -1.4488431 4281669401
1.8490579 0.056583732 -0.46421349 4289302141
1.8310459 0.044777222 -0.45921269 4286733634
1.8071721 0.033084195 -0.4526327 4287324224
1.7320974 0.021030506 -0.43210313 4287194186
1.7399116 0.010453726 -0.43420872 4283511846
1.7302957 -0.00022762903 -0.43157673 4281474330
1.7148259 -0.010758226 -0.42736554 4281213476
1.705081 -0.02116687 -0.42473355 4281541924
1.7078127 -0.031680346 -0.42552313 4281739040
1.7268754 -0.042621687 -0.43078715 4281607969
1.7275456 -0.053245861 -0.43105033 4281213729
1.7107966 -0.063250162 -0.42657596 4280753695
1.7604978 -0.075872943 -0.44026232 4280294175
1.7763804 -0.087469533 -0.44473672 4281479221
1.7314985 -0.095942259 -0.43262953 4280688935
5.3024883 -0.32403618 -1.4088367 4283580729
5.3042507 -0.35682374 -1.4098896 4283713085
5.3212042 -0.39077219 -1.4151535 4285686354
5.3696775 -0.42746156 -1.4291031 4285093707
5.4082866 -0.46393794 -1.4404207 4282528809
5.4447274 -0.50072777 -1.4512119 4281082390
5.5942159 -0.54907852 -1.4930606 4280295195
5.5897813 -0.58329368 -1.4927974 4280295708
5.5822616 -0.61715776 -1.4917446 4280428323
5.5850778 -0.65218008 -1.493587 4280034594
5.5685225 -0.68490875 -1.4901655 4280034342
5.5651722 -0.71918708 -1.4904286 4280166450
5.5444021 -0.75112253 -1.4859543 4280101435
5.5492411 -0.78647989 -1.4885862 4280297523
4.716866 -0.69823599 -1.2603922 4283653219
5.5191483 -0.85143375 -1.483059 4280824898
5.4680967 -0.87795115 -1.4704255 4280627517
4.8906837 -0.81617999 -1.3122425 4282594600
4.8171387 -0.83433545 -1.2932922 4282198306
4.8071804 -0.8630259 -1.2919761 4282002463
4.8378386 -0.89919651 -1.3019778 4280951328
5.2206812 -1.0034372 -1.4098896 4281216820
5.0677485 -1.006359 -1.3690937 4278848271
5.2542858 -1.0769088 -1.4227864 4278716424
4.9341941 -1.0429626 -1.335404 4283385922
4.9814353 -1.0849082 -1.3504064 4289701527
4.8193507 -1.0806611 -1.3069785 4291611064
4.7994676 -1.1071788 -1.3032937 4283585607
4.9493561 -1.1737477 -1.3472481 4286744449
4.9645581 -1.2095699 -1.3535649 4280691503
4.9626589 -1.2414125 -1.355144 4280494644
4.9661622 -1.2747152 -1.3583025 4280232494
4.9302564 -1.2978019 -1.3504064 4279839543
4.9017076 -1.3225049 -1.3446161 4279379756
4.8460741 -1.3394593 -1.3311929 4291090389
4.5314116 -1.2825432 -1.244337 4288449411
4.52809 -1.3116642 -1.245653 4292583301
4.5366077 -1.3443531 -1.2503906 4292712818
4.5190401 -1.3693684 -1.2477586 4292844404
4.5096307 -1.3967857 -1.2474954 4293173620
4.499136 -1.4238484 -1.246969 4293042286
4.5031667 -1.4555787 -1.2506537 4293307776
4.4923186 -1.482578 -1.2501274 4294957248
4.4831376 -1.5101146 -1.2501274 4283047692
4.4673996 -1.5354005 -1.2482851 4284230428
4.4287586 -1.5525773 -1.2398626 4286402098
4.4136977 -1.5777752 -1.2382834 4286008104
4.4102793 -1.6071382 -1.2401258 4285156142
4.4772153 -1.6626981 -1.2624978 4284762933
4.4768553 -1.6938916 -1.265393 4284829755
4.5005884 -1.7345043 -1.2753946 4283183641
4.4925551 -1.7631434 -1.2761842 4286009383
4.4762769 -1.7885298 -1.2746049 4286798119
4.4839869 -1.8235897 -1.2801322 4286345286
4.0464611 1.5618132 -1.1973088 4283779923
4.0595651 1.538318 -1.1984067 4294766317
2.7629344 1.0277665 -0.80071014 4287330428
2.7764156 1.013431 -0.80290586 4288118643
4.0048056 1.4338454 -1.1734306 4287723099
4.0452847 1.4203925 -1.1830367 4283382560
3.1646678 1.0895116 -0.91461217 4282065689
3.9886062 1.3457497 -1.1608052 4287262296
3.9830928 1.3167248 -1.1566883 4286605118
4.00665 1.2972944 -1.1613542 4286342216
4.0695343 1.2901161 -1.177822 4286739042
3.7228596 1.1551588 -1.0718794 4283055664
4.1825967 1.2696787 -1.206915 4288450187
4.2686663 1.2672457 -1.2302443 4285885289
4.396419 1.2758601 -1.2659245 4281016857
4.2912974 1.2168652 -1.23244 4284631875
4.52388 1.2528583 -1.2991345 4281408270
4.5361238 1.226331 -1.3005068 4284501823
4.5389142 1.1972489 -1.2991345 4284104243
4.5489688 1.1700946 -1.2999579 4284695089
4.5551295 1.1419268 -1.2996835 4284825394
4.5826025 1.1189721 -1.3057216 4282593583
4.8475947 1.152184 -1.3814733 4280693312
4.8976703 1.1323789 -1.3940986 4279972938
4.9026504 1.1018845 -1.3935497 4280826450
4.8679814 1.0627604 -1.3814733 4281743431
4.8339596 1.0243028 -1.3696713 4290559162
4.789289 0.98417473 -1.3548504 4286546043
3.2589271 0.64900428 -0.90775061 4287600033
4.8076153 0.92660201 -1.3567717 4287795858
4.7905226 0.89285886 -1.3501846 4287799457
4.7788758 0.86038244 -1.3452442 4281221198
4.7708011 0.8287406 -1.3414017 4280759881
4.7587247 0.79659563 -1.3364614 4280695630
5.3189049 0.85680538 -1.4970222 4279972156
5.3430672 0.82709378 -1.5025114 4280565075
5.3680162 0.79725885 -1.508275 4281351250
5.4013681 0.76836717 -1.5165089 4285033342
5.4250379 0.7378009 -1.5219982 4280824906
5.4533029 0.7075913 -1.5288597 4280170575
5.4479985 0.672939 -1.5261152 4280170579
5.4558454 0.63994586 -1.527213 4280760657
5.3153543 0.59043717 -1.4857692 4280630088
4.9946713 0.52383459 -1.3927263 4283977053
4.9729104 0.49072471 -1.3855902 4288382864
4.9126315 0.45436233 -1.3674757 4279440923
4.7744946 0.4120672 -1.3271297 4278783254
1.8610798 0.14936012 -0.49221402 4281871406
4.7966208 0.32515389 -1.331521 4281414715
4.7994862 0.29577535 -1.3317956 4280495933
5.4204912 0.30062202 -1.508824 4280759103
5.4923463 0.27080888 -1.5288597 4280102725
5.3632483 0.23147376 -1.4915328 4281090137
5.2358012 0.19380432 -1.4547548 4281284156
1.8286822 0.056706902 -0.48150998 4289633436
1.8318796 0.045556363 -0.48233336 4285089077
1.8292403 0.03426189 -0.48150998 4287192636
1.7746093 0.022358639 -0.46586561 4286535739
1.7506737 0.011319293 -0.45900401 4284497460
1.7459021 0.00057662337 -0.45763171 4281605916
1.7102944 -0.0099216131 -0.4474766 4281345315
1.7102011 -0.020415595 -0.4474766 4281542694
1.7042753 -0.030803239 -0.44582981 4281936419
1.6963636 -0.041071944 -0.44363412 4281607456
1.7104968 -0.051920742 -0.44775105 4281345315
5.2115383 -0.22302487 -1.4481678 4279507747
5.204309 -0.25471562 -1.4465209 4279639844
1.7720766 -0.09737888 -0.46586561 4278387720
5.1671987 -0.31650114 -1.4369148 4285032554
5.18051 -0.34923652 -1.4413062 4280361762
5.2022448 -0.38278288 -1.4481678 4282599753
5.217052 -0.41607332 -1.4531081 4284439635
5.3332005 -0.45829406 -1.4871415 4278978560
5.3580565 -0.49356934 -1.4951009 4282334012
5.3243036 -0.52342367 -1.4863181 4282202164
5.3917642 -0.56348455 -1.5066283 4281676333
5.3796039 -0.59560424 -1.5041581 4281413676
5.3500605 -0.62558442 -1.4967476 4279769364
5.3365779 -0.65722394 -1.4940031 4279834646
5.4039674 -0.69921571 -1.5145878 4279373843
5.4424539 -0.73817956 -1.5269386 4279440408
5.3473773 -0.7587204 -1.5008646 4281216558
5.3778157 -0.79673374 -1.5110197 4282597952
4.6923952 -0.72458917 -1.3145044 4278518536
5.394217 -0.86694211 -1.5187047 4281083945
4.8899117 -0.81666541 -1.3743373 4283120178
4.8525953 -0.84106797 -1.3650055 4282594349
4.8426108 -0.86997664 -1.3636333 4281805348
4.8230014 -0.89703524 -1.3595163 4280490777
4.8051305 -0.92424959 -1.3559482 4284308831
4.8172889 -0.95727837 -1.361163 4282728768
4.8216863 -0.98894471 -1.3641821 4282399027
4.8390465 -1.0234879 -1.3710437 4282598211
5.1765437 -1.1281259 -1.4714971 4278520852
5.0334773 -1.1293327 -1.4317 4283058764
4.9308844 -1.1381296 -1.4037048 4278913027
4.9303575 -1.1699181 -1.4056261 4282861634
4.9866128 -1.2156399 -1.4242895 4279901725
4.9837241 -1.2473822 -1.4256618 4279968298
4.9480362 -1.2707602 -1.4174279 4279508519
4.9150391 -1.2944825 -1.4100174 4282734184
4.8661561 -1.3135864 -1.3979411 4288526264
4.8190794 -1.3326523 -1.3864136 4286622113
4.7775044 -1.3527627 -1.3765329 4291879654
4.4615631 -1.2928996 -1.2851368 4281081625
4.4323416 -1.3139632 -1.2788242 4284496690
4.4232759 -1.3408556 -1.2785498 4284100129
4.4342532 -1.3739493 -1.2843134 4284560413
4.4119887 -1.3967769 -1.2801965 4284098062
4.417974 -1.428557 -1.284588 4291268211
4.3862982 -1.4480999 -1.2777264 4291597950
4.3909988 -1.4795934 -1.2818433 4292386690
4.383656 -1.5071336 -1.2823923 4288834634
4.377048 -1.5349576 -1.2832156 4282916619
4.4526567 -1.5922281 -1.3090152 4282393363
4.4346728 -1.6165546 -1.306545 4284631590
4.4156566 -1.6403854 -1.3038003 4285421606
4.4010115 -1.6657461 -1.302428 4286143269
4.4203157 -1.704136 -1.3114853 4287459901
4.4804859 -1.758993 -1.3331679 4283904009
4.4713941 -1.7871655 -1.3337168 4286337823
4.4924088 -1.8276156 -1.3435974 4285685030
4.49266 -1.8599285 -1.3471655 4285033807
3.9299195 1.5449209 -1.215559 4284242535
2.7269807 1.0523657 -0.8288461 4292532443
2.7244246 1.032214 -0.82599425 4293779420
2.7316053 1.0158123 -0.8262794 4282328079
3.9963586 1.4588649 -1.2249702 4285024556
4.001626 1.4330227 -1.2238295 4289040250
